#!ascii version in FreeSurfer format (SUMA)
32492 64980
43.814312  -13.990374  88.795135  0
45.376884  -15.118798  87.820038  0
46.913586  -16.253016  86.804115  0
48.423801  -17.392683  85.747467  0
49.906921  -18.537466  84.650230  0
51.362331  -19.686995  83.512466  0
52.789383  -20.840925  82.334297  0
54.187435  -21.998888  81.115784  0
55.555828  -23.160507  79.856995  0
56.893875  -24.325396  78.558014  0
2.019367  7.674519  99.684616  0
4.025703  6.759695  99.690018  0
6.018422  5.831418  99.648239  0
7.996957  4.890059  99.559708  0
9.960752  3.935989  99.424805  0
11.909261  2.969591  99.243896  0
13.841947  1.991220  99.017342  0
15.758280  1.001234  98.745499  0
17.657722  -0.000000  98.428680  0
19.539755  -1.012127  98.067184  0
21.403839  -2.034795  97.661324  0
23.249453  -3.067657  97.211388  0
25.076054  -4.110344  96.717613  0
26.883118  -5.162532  96.180283  0
28.670092  -6.223855  95.599625  0
30.436441  -7.293977  94.975899  0
32.181618  -8.372556  94.309296  0
33.905060  -9.459245  93.600044  0
35.606228  -10.553713  92.848343  0
37.284538  -11.655602  92.054382  0
38.939430  -12.764598  91.218338  0
40.570328  -13.880338  90.340378  0
42.176655  -15.002501  89.420662  0
43.757801  -16.130735  88.459335  0
45.313187  -17.264704  87.456528  0
46.842205  -18.404060  86.412369  0
48.344238  -19.548456  85.326973  0
49.818642  -20.697544  84.200439  0
51.264797  -21.850941  83.032860  0
52.682045  -23.008287  81.824326  0
54.069706  -24.169201  80.574913  0
55.427109  -25.333281  79.284676  0
2.020293  5.757518  99.813667  0
4.027308  4.829545  99.802086  0
6.020450  3.888422  99.742836  0
7.999144  2.934533  99.636345  0
9.962825  1.968249  99.483009  0
11.910938  0.989952  99.283180  0
13.842937  -0.000000  99.037224  0
15.758280  -1.001234  98.745499  0
17.656424  -2.013389  98.408318  0
19.536835  -3.036107  98.025986  0
21.398973  -4.069029  97.598808  0
23.242300  -5.111802  97.127060  0
25.066261  -6.164063  96.611008  0
26.870331  -7.225473  96.050903  0
28.653948  -8.295672  95.447006  0
30.416559  -9.374316  94.799545  0
32.157616  -10.461056  94.108742  0
33.876534  -11.555546  93.374786  0
35.572769  -12.657445  92.597878  0
37.245731  -13.766397  91.778221  0
38.894840  -14.882073  90.915977  0
40.519512  -16.004112  90.011314  0
42.119156  -17.132187  89.064384  0
43.693157  -18.265938  88.075317  0
45.240913  -19.405014  87.044266  0
46.761795  -20.549063  85.971336  0
48.255169  -21.697714  84.856628  0
49.720390  -22.850622  83.700249  0
51.156796  -24.007378  82.502281  0
52.563721  -25.167610  81.262817  0
53.940456  -26.330912  79.981934  0
2.020953  3.839121  99.905838  0
4.028376  2.898201  99.876785  0
6.021666  1.944453  99.799591  0
8.000237  0.978260  99.674667  0
9.963515  -0.000000  99.502403  0
11.910938  -0.989952  99.283180  0
13.841947  -1.991220  99.017342  0
15.755995  -3.003436  98.705254  0
17.652525  -4.026237  98.347221  0
19.530996  -5.059259  97.943573  0
21.390856  -6.102139  97.494591  0
23.231562  -7.154524  97.000557  0
25.052551  -8.216040  96.461739  0
26.853281  -9.286352  95.878387  0
28.633186  -10.365095  95.250748  0
30.391693  -11.451914  94.579048  0
32.128258  -12.546466  93.863525  0
33.842281  -13.648392  93.104355  0
35.533199  -14.757356  92.301743  0
37.200420  -15.872986  91.455879  0
38.843349  -16.994953  90.566910  0
40.461388  -18.122887  89.635017  0
42.053925  -19.256453  88.660339  0
43.620346  -20.395283  87.643013  0
45.160019  -21.539013  86.583160  0
46.672302  -22.687277  85.480888  0
48.156551  -23.839706  84.336319  0
49.612087  -24.995914  83.149529  0
51.038250  -26.155502  81.920616  0
52.434330  -27.318058  80.649643  0
2.021350  1.919789  99.961128  0
4.028911  0.966143  99.914131  0
6.022071  -0.000000  99.818504  0
8.000237  -0.978260  99.674667  0
9.962825  -1.968254  99.483009  0
11.909261  -2.969596  99.243896  0
13.838981  -3.981914  98.957703  0
15.751423  -5.004839  98.624763  0
17.646025  -6.037999  98.245407  0
19.522238  -7.081029  97.819939  0
21.379494  -8.133564  97.348663  0
23.217245  -9.195241  96.831841  0
25.034920  -10.265696  96.269760  0
26.831961  -11.344576  95.662666  0
28.607798  -12.431519  95.010796  0
30.361847  -13.526167  94.314369  0
32.093548  -14.628166  93.573608  0
33.802296  -15.737161  92.788719  0
35.487514  -16.852800  91.959877  0
37.148598  -17.974716  91.087273  0
38.784939  -19.102570  90.171059  0
40.395924  -20.235979  89.211403  0
41.980938  -21.374599  88.208427  0
43.539330  -22.518051  87.162285  0
45.070469  -23.665972  86.073074  0
46.573696  -24.817968  84.940918  0
48.048332  -25.973656  83.765907  0
49.493690  -27.132639  82.548134  0
50.909077  -28.294487  81.287682  0
2.021482  -0.000000  99.979561  0
4.028911  -0.966143  99.914131  0
6.021666  -1.944450  99.799591  0
7.999144  -2.934528  99.636345  0
9.960752  -3.935994  99.424805  0
11.905907  -4.948461  99.165329  0
13.834034  -5.971554  98.858276  0
15.744565  -7.004901  98.504013  0
17.636925  -8.048125  98.102829  0
19.510555  -9.100861  97.655067  0
21.364883  -10.162733  97.161003  0
23.199345  -11.233383  96.620918  0
25.013361  -12.312439  96.035072  0
26.806366  -13.399548  95.403717  0
28.577776  -14.494341  94.727104  0
30.327005  -15.596456  94.005440  0
32.053471  -16.705534  93.238945  0
33.756565  -17.821213  92.427803  0
35.435692  -18.943140  91.572205  0
37.090240  -20.070932  90.672333  0
38.719582  -21.204245  89.728325  0
40.323097  -22.342695  88.740356  0
41.900146  -23.485920  87.708542  0
43.450073  -24.633532  86.633018  0
44.972221  -25.785149  85.513893  0
46.465908  -26.940365  84.351265  0
47.930439  -28.098778  83.145241  0
49.365112  -29.259972  81.895905  0
2.021350  -1.919796  99.961128  0
4.028376  -2.898201  99.876785  0
6.020450  -3.888422  99.742836  0
7.996957  -4.890059  99.559708  0
9.957294  -5.902732  99.327789  0
11.900872  -6.926047  99.047455  0
13.827106  -7.959633  98.719070  0
15.735415  -9.003101  98.342979  0
17.625219  -10.056088  97.919487  0
19.495943  -11.118208  97.448921  0
21.347015  -12.189101  96.931580  0
23.177851  -13.268395  96.367714  0
24.987867  -14.355710  95.757607  0
26.776489  -15.450697  95.101501  0
28.543114  -16.552977  94.399628  0
30.287155  -17.662186  93.652206  0
32.008011  -18.777960  92.859444  0
33.705067  -19.899929  92.021523  0
35.377712  -21.027735  91.138641  0
37.025318  -22.160984  90.210953  0
38.647247  -23.299326  89.238625  0
40.242867  -24.442360  88.221779  0
41.811516  -25.589722  87.160561  0
43.352520  -26.741001  86.055084  0
44.865204  -27.895803  84.905464  0
46.348866  -29.053703  83.711792  0
47.802792  -30.214281  82.474174  0
2.020953  -3.839121  99.905838  0
4.027308  -4.829545  99.802086  0
6.018422  -5.831418  99.648239  0
7.993674  -6.844347  99.444733  0
9.952453  -7.867949  99.191948  0
11.894157  -8.901832  98.890274  0
13.818194  -9.945606  98.540047  0
15.723974  -10.998901  98.141640  0
17.610901  -12.061328  97.695343  0
19.478405  -13.132519  97.201485  0
21.325884  -14.212095  96.660347  0
23.152761  -15.299689  96.072205  0
24.958435  -16.394917  95.437325  0
26.742313  -17.497417  94.755936  0
28.503803  -18.606817  94.028290  0
30.242285  -19.722736  93.254585  0
31.957155  -20.844812  92.435028  0
33.647781  -21.972664  91.569801  0
35.313545  -23.105925  90.659081  0
36.953804  -24.244196  89.703033  0
38.567909  -25.387119  88.701805  0
40.155197  -26.534269  87.655533  0
41.714993  -27.685272  86.564331  0
43.246613  -28.839706  85.428337  0
44.749348  -29.997154  84.247643  0
46.222500  -31.157179  83.022354  0
2.020293  -5.757518  99.813667  0
4.025703  -6.759695  99.690018  0
6.015581  -7.772954  99.515785  0
7.989297  -8.796904  99.291412  0
9.946227  -9.831152  99.017273  0
11.885761  -10.875297  98.693748  0
13.807299  -11.928965  98.321198  0
15.710237  -12.991762  97.899956  0
17.593977  -14.063316  97.430359  0
19.457928  -15.143245  96.912697  0
21.301491  -16.231165  96.347267  0
23.124063  -17.326706  95.734337  0
24.925049  -18.429480  95.074158  0
26.703842  -19.539131  94.366982  0
28.459824  -20.655260  93.613022  0
30.192375  -21.777500  92.812508  0
31.900881  -22.905466  91.965607  0
33.584690  -24.038784  91.072525  0
35.243179  -25.177067  90.133415  0
36.875675  -26.319908  89.148453  0
38.481522  -27.466930  88.117760  0
40.060032  -28.617710  87.041481  0
41.610527  -29.771843  85.919731  0
43.132290  -30.928896  84.752625  0
44.624603  -32.088432  83.540268  0
2.019367  -7.674519  99.684616  0
4.023562  -8.688184  99.540573  0
6.011927  -9.712555  99.345467  0
7.983820  -10.747236  99.099724  0
9.938612  -11.791831  98.803726  0
11.875680  -12.845943  98.457863  0
13.794410  -13.909182  98.062469  0
15.694198  -14.981168  97.617905  0
17.574430  -16.061514  97.124489  0
19.434505  -17.149834  96.582520  0
21.273817  -18.245750  95.992271  0
23.091755  -19.348881  95.354027  0
24.887699  -20.458832  94.668037  0
26.661047  -21.575241  93.934540  0
28.411160  -22.697712  93.153748  0
30.137407  -23.825861  92.325859  0
31.839161  -24.959303  91.451080  0
33.515762  -26.097649  90.529587  0
35.166557  -27.240498  89.561531  0
36.790874  -28.387438  88.547081  0
38.388023  -29.538073  87.486343  0
39.957317  -30.691961  86.379478  0
41.498051  -31.848694  85.226593  0
43.009476  -33.007801  84.027794  0
2.018176  -9.589652  99.518669  0
4.020885  -10.614532  99.353729  0
6.007459  -11.649730  99.137245  0
7.977246  -12.694846  98.869637  0
9.929605  -13.749486  98.551277  0
11.863907  -14.813244  98.182556  0
13.779531  -15.885739  97.763832  0
15.675854  -16.966581  97.295441  0
17.552259  -18.055376  96.777687  0
19.408138  -19.151741  96.210884  0
21.242859  -20.255283  95.595314  0
23.055817  -21.365635  94.931229  0
24.846378  -22.482384  94.218895  0
26.613913  -23.605156  93.458527  0
28.357790  -24.733561  92.650345  0
30.077360  -25.867201  91.794556  0
31.771976  -27.005684  90.891335  0
33.440964  -28.148592  89.940857  0
35.083656  -29.295544  88.943283  0
36.699364  -30.446091  87.898758  0
38.287384  -31.599827  86.807411  0
39.847000  -32.756287  85.669373  0
41.377491  -33.915047  84.484741  0
2.016720  -11.502470  99.315788  0
4.017670  -12.538278  99.129463  0
6.002172  -13.584002  98.891090  0
7.969568  -14.639253  98.601112  0
9.919203  -15.703622  98.259888  0
11.850440  -16.776709  97.867813  0
13.762649  -17.858128  97.425232  0
15.655197  -18.947479  96.932487  0
17.527454  -20.044374  96.389893  0
19.378801  -21.148420  95.797729  0
21.208603  -22.259226  95.156296  0
23.016237  -23.376408  94.465851  0
24.801054  -24.499556  93.726616  0
26.562424  -25.628290  92.938835  0
28.299690  -26.762207  92.102722  0
30.012197  -27.900900  91.218452  0
31.699280  -29.043964  90.286240  0
33.360245  -30.190981  89.306206  0
34.994419  -31.341532  88.278526  0
36.601082  -32.495171  87.203346  0
38.179523  -33.651470  86.080788  0
39.729000  -34.809940  84.910980  0
2.014997  -13.412496  99.075951  0
4.013915  -14.458933  98.867729  0
5.996067  -15.514888  98.606972  0
7.960783  -16.579952  98.294106  0
9.907401  -17.653728  97.929512  0
11.835275  -18.735819  97.513565  0
13.743761  -19.825815  97.046616  0
15.632217  -20.923330  96.528999  0
17.500004  -22.027958  95.961021  0
19.346493  -23.139318  95.342987  0
21.171038  -24.257004  94.675156  0
22.972996  -25.380623  93.957779  0
24.751717  -26.509762  93.191124  0
26.506556  -27.644037  92.375374  0
28.236834  -28.783028  91.510750  0
29.941887  -29.926317  90.597450  0
31.621035  -31.073490  89.635643  0
33.273567  -32.224113  88.625481  0
34.898792  -33.377762  87.567116  0
36.495975  -34.533947  86.460693  0
38.064373  -35.692238  85.306320  0
2.013006  -15.319268  98.799126  0
4.009618  -16.376036  98.568497  0
5.989138  -17.441900  98.284843  0
7.950887  -18.516464  97.948570  0
9.894194  -19.599318  97.560089  0
11.818399  -20.690056  97.119751  0
13.722851  -21.788280  96.627907  0
15.606903  -22.893595  96.084900  0
17.469896  -24.005598  95.491013  0
19.311193  -25.123884  94.846550  0
21.130136  -26.248047  94.151772  0
22.926071  -27.377699  93.406944  0
24.698338  -28.512411  92.612274  0
26.446268  -29.651787  91.768005  0
28.169180  -30.795393  90.874313  0
29.866388  -31.942812  89.931396  0
31.537197  -33.093605  88.939415  0
33.180874  -34.247322  87.898521  0
34.796715  -35.403511  86.808868  0
36.383961  -36.561684  85.670593  0
2.010747  -17.222338  98.485268  0
4.004777  -18.289114  98.231720  0
5.981384  -19.364573  97.924644  0
7.939877  -20.448298  97.564461  0
9.879576  -21.539886  97.151558  0
11.799811  -22.638929  96.686310  0
13.699922  -23.745026  96.169052  0
15.579247  -24.857767  95.600098  0
17.437120  -25.976753  94.979767  0
19.272888  -27.101566  94.308327  0
21.085886  -28.231808  93.586060  0
22.875444  -29.367067  92.813194  0
24.640888  -30.506910  91.989967  0
26.381540  -31.650932  91.116585  0
28.096697  -32.798687  90.193253  0
29.785658  -33.949738  89.220116  0
31.447710  -35.103626  88.197372  0
33.082111  -36.259895  87.125168  0
34.688118  -37.418068  86.003624  0
2.008218  -19.121222  98.134323  0
3.999389  -20.197693  97.857330  0
5.972798  -21.282406  97.526329  0
7.927743  -22.374952  97.141708  0
9.863536  -23.474926  96.703865  0
11.779495  -24.581911  96.213165  0
13.674951  -25.695505  95.669930  0
15.549226  -26.815290  95.074501  0
17.401646  -27.940859  94.427162  0
19.231552  -29.071798  93.728210  0
21.038254  -30.207693  92.977882  0
22.821079  -31.348122  92.176422  0
24.579332  -32.492641  91.324059  0
26.312325  -33.640835  90.420990  0
28.019331  -34.792244  89.467407  0
29.699640  -35.946407  88.463486  0
31.352510  -37.102852  87.409363  0
32.977196  -38.261101  86.305222  0
2.005417  -21.015469  97.746239  0
3.993452  -22.101301  97.445290  0
5.963377  -23.194929  97.089821  0
7.914483  -24.295946  96.680229  0
9.846069  -25.403942  96.216911  0
11.757447  -26.518497  95.700226  0
13.647928  -27.639198  95.130478  0
15.516832  -28.765629  94.508018  0
17.363470  -29.897379  93.833130  0
19.187164  -31.034019  93.106079  0
20.987221  -32.175125  92.327118  0
22.762947  -33.320267  91.496483  0
24.513636  -34.468990  90.614403  0
26.238573  -35.620861  89.681053  0
27.937033  -36.775398  88.696632  0
29.608276  -37.932133  87.661293  0
31.251545  -39.090572  86.575211  0
2.002343  -22.904623  97.320953  0
3.986960  -23.999464  96.995514  0
5.953114  -25.101654  96.615044  0
7.900084  -26.210777  96.179947  0
9.827164  -27.326427  95.690613  0
11.733644  -28.448162  95.147377  0
13.618833  -29.575577  94.550575  0
15.482037  -30.708246  93.900528  0
17.322554  -31.845751  93.197517  0
19.139694  -32.987656  92.441795  0
20.932747  -34.133514  91.633629  0
22.701006  -35.282894  90.773239  0
24.443747  -36.435326  89.860840  0
26.160244  -37.590351  88.896606  0
27.849743  -38.747478  87.880737  0
29.511494  -39.906212  86.813400  0
1.998994  -24.788198  96.858398  0
3.979911  -25.891703  96.507927  0
5.942004  -27.002094  96.101921  0
7.884542  -28.118952  95.640778  0
9.806807  -29.241865  95.124863  0
11.708079  -30.370388  94.554535  0
13.587656  -31.504103  93.930115  0
15.444826  -32.642590  93.251900  0
17.278881  -33.785408  92.520195  0
19.089117  -34.932117  91.735229  0
20.874802  -36.082256  90.897263  0
22.635220  -37.235378  90.006523  0
24.369621  -38.390987  89.063194  0
26.077274  -39.548626  88.067482  0
27.757399  -40.707771  87.019562  0
1.995366  -26.665739  96.358475  0
3.972298  -27.777544  95.982437  0
5.930037  -28.895761  95.550346  0
7.867844  -30.019968  95.062599  0
9.784985  -31.149740  94.519562  0
11.680731  -32.284637  93.921570  0
13.554367  -33.424240  93.268959  0
15.405171  -34.568096  92.562019  0
17.232420  -35.715771  91.801025  0
19.035385  -36.866798  90.986221  0
20.813337  -38.020725  90.117867  0
22.565527  -39.177063  89.196159  0
24.291203  -40.335316  88.221306  0
25.989601  -41.494995  87.193497  0
1.991459  -28.536770  95.821121  0
3.964117  -29.656498  95.418953  0
5.917208  -30.782158  94.960236  0
7.849978  -31.913309  94.445320  0
9.761682  -33.049534  93.874588  0
11.651582  -34.190384  93.248367  0
13.518948  -35.335423  92.566978  0
15.363044  -36.484196  91.830711  0
17.183130  -37.636242  91.039841  0
18.978468  -38.791096  90.194611  0
20.748306  -39.948277  89.295250  0
22.491886  -41.107292  88.341980  0
24.208427  -42.267612  87.334991  0
1.987268  -30.400814  95.246208  0
3.955362  -31.528078  94.817368  0
5.903504  -32.660774  94.331451  0
7.830929  -33.798462  93.788803  0
9.736881  -34.940716  93.189804  0
11.620609  -36.087070  92.534775  0
13.481369  -37.237083  91.824028  0
15.318410  -38.390285  91.057846  0
17.130976  -39.546211  90.236504  0
18.918318  -40.704369  89.360237  0
20.679661  -41.864262  88.429268  0
22.414230  -43.025375  87.443810  0
1.982790  -32.257389  94.633659  0
3.946025  -33.391788  94.177574  0
5.888916  -34.531105  93.663887  0
7.810685  -35.674904  93.092934  0
9.710562  -36.822735  92.465073  0
11.587788  -37.974136  91.780655  0
13.441599  -39.128639  91.039948  0
15.271233  -40.285778  90.243263  0
17.075914  -41.445053  89.390831  0
18.854883  -42.605972  88.482895  0
20.607342  -43.767994  87.519714  0
1.978022  -34.105980  93.983345  0
3.936100  -35.247101  93.499458  0
5.873431  -36.392616  92.957413  0
7.789227  -37.542068  92.357567  0
9.682706  -38.695019  91.700272  0
11.553091  -39.850979  90.985847  0
13.399608  -41.009483  90.214584  0
15.221475  -42.170021  89.386772  0
17.017904  -43.332100  88.502655  0
18.788111  -44.495190  87.562454  0
1.972959  -35.946098  93.295143  0
3.925576  -37.093506  92.782867  0
5.857036  -38.244766  92.211884  0
7.766539  -39.399418  91.582565  0
9.653288  -40.557003  90.895233  0
11.516490  -41.717022  90.150215  0
13.355357  -42.878983  89.347794  0
15.169093  -44.042381  88.488228  0
16.956890  -45.206684  87.571793  0
1.967597  -37.777222  92.568947  0
3.914445  -38.930466  92.027695  0
5.839717  -40.087002  91.427185  0
7.742598  -41.246372  90.767769  0
9.622278  -42.408081  90.049797  0
11.477949  -43.571625  89.273567  0
13.308807  -44.736500  88.439362  0
15.114037  -45.902168  87.547447  0
1.961931  -39.598812  91.804596  0
3.902698  -40.757423  91.233765  0
5.821458  -41.918755  90.603134  0
7.717385  -43.082317  89.913048  0
9.589652  -44.247631  89.163803  0
11.437437  -45.414150  88.355751  0
13.259916  -46.581352  87.489151  0
1.955956  -41.410316  91.001968  0
3.890321  -42.573807  90.400978  0
5.802241  -43.739422  89.739601  0
7.690873  -44.906658  89.018211  0
9.555377  -46.075008  88.237114  0
11.394911  -47.243916  87.396606  0
1.949665  -43.211166  90.160934  0
3.877304  -44.379021  89.529152  0
5.782048  -45.548382  88.836433  0
7.663039  -46.718735  88.083122  0
9.519420  -47.889534  87.269539  0
1.943052  -45.000755  89.281334  0
3.863633  -46.172440  88.618156  0
5.760859  -47.344990  87.893486  0
7.633854  -48.517864  87.107643  0
1.936111  -46.778477  88.363037  0
3.849295  -47.953426  87.667847  0
5.738650  -49.128567  86.910591  0
1.928835  -48.543652  87.405907  0
3.834274  -49.721283  86.678093  0
1.921215  -50.295624  86.409836  0
1.182449  53.946903  84.192238  0
2.359996  55.293850  83.288780  0
3.532313  56.613804  82.355331  0
4.699089  57.906624  81.392509  0
5.860040  59.172241  80.400909  0
7.014891  60.410545  79.381088  0
8.163385  61.621464  78.333603  0
9.305279  62.804935  77.258987  0
10.440333  63.960892  76.157753  0
11.568326  65.089279  75.030396  0
12.689031  66.190018  73.877388  0
13.802239  67.263077  72.699211  0
14.907737  68.308380  71.496323  0
16.005320  69.325874  70.269142  0
17.094776  70.315475  69.018135  0
18.175901  71.277130  67.743683  0
19.248489  72.210747  66.446236  0
20.312340  73.116257  65.126198  0
21.367239  73.993568  63.783947  0
22.412981  74.842583  62.419907  0
23.449350  75.663216  61.034462  0
24.476139  76.455353  59.627991  0
25.493137  77.218887  58.200886  0
26.500116  77.953697  56.753532  0
27.496862  78.659676  55.286316  0
28.483158  79.336700  53.799599  0
29.458778  79.984634  52.293774  0
30.423498  80.603340  50.769199  0
31.377094  81.192696  49.226250  0
32.319328  81.752548  47.665302  0
33.249981  82.282761  46.086720  0
34.168823  82.783180  44.490852  0
35.075611  83.253647  42.878090  0
35.970127  83.694023  41.248760  0
36.852119  84.104126  39.603226  0
37.721367  84.483810  37.941849  0
38.577629  84.832886  36.264965  0
39.420650  85.151192  34.572914  0
40.250202  85.438530  32.866055  0
41.066036  85.694733  31.144716  0
41.867901  85.919586  29.409225  0
42.655544  86.112907  27.659925  0
43.428719  86.274467  25.897152  0
44.187153  86.404060  24.121229  0
44.930592  86.501450  22.332487  0
45.658733  86.566422  20.531281  0
46.371330  86.598709  18.717941  0
47.068073  86.598083  16.892813  0
47.748680  86.564262  15.056258  0
48.412830  86.496994  13.208636  0
49.060207  86.395973  11.350334  0
49.690491  86.260948  9.481746  0
50.303337  86.091599  7.603283  0
50.898396  85.887642  5.715400  0
51.475296  85.648766  3.818553  0
52.033665  85.374687  1.913242  0
85.374687  1.913243  52.033665  0
85.648766  3.818555  51.475296  0
85.887642  5.715402  50.898396  0
86.091599  7.603287  50.303337  0
86.260948  9.481744  49.690491  0
86.395973  11.350331  49.060207  0
86.496994  13.208635  48.412830  0
86.564262  15.056259  47.748680  0
86.598083  16.892813  47.068073  0
86.598709  18.717943  46.371330  0
86.566422  20.531284  45.658733  0
86.501450  22.332493  44.930584  0
86.404060  24.121225  44.187157  0
86.274460  25.897150  43.428719  0
86.112907  27.659925  42.655544  0
85.919586  29.409225  41.867901  0
85.694733  31.144716  41.066036  0
85.438530  32.866055  40.250202  0
85.151192  34.572922  39.420647  0
84.832886  36.264965  38.577625  0
84.483810  37.941845  37.721367  0
84.104126  39.603226  36.852127  0
83.694023  41.248760  35.970127  0
83.253647  42.878090  35.075611  0
82.783180  44.490852  34.168823  0
82.282761  46.086720  33.249981  0
81.752556  47.665306  32.319328  0
81.192696  49.226254  31.377089  0
80.603340  50.769203  30.423496  0
79.984634  52.293777  29.458778  0
79.336708  53.799603  28.483162  0
78.659676  55.286316  27.496862  0
77.953697  56.753532  26.500116  0
77.218887  58.200890  25.493137  0
76.455360  59.627987  24.476143  0
75.663223  61.034462  23.449352  0
74.842583  62.419907  22.412977  0
73.993568  63.783958  21.367239  0
73.116257  65.126198  20.312340  0
72.210747  66.446236  19.248489  0
71.277130  67.743683  18.175901  0
70.315475  69.018135  17.094776  0
69.325874  70.269142  16.005320  0
68.308388  71.496315  14.907741  0
67.263077  72.699219  13.802236  0
66.190018  73.877388  12.689030  0
65.089272  75.030388  11.568324  0
63.960892  76.157753  10.440333  0
62.804939  77.258995  9.305280  0
61.621464  78.333603  8.163386  0
60.410545  79.381081  7.014893  0
59.172241  80.400909  5.860041  0
57.906624  81.392509  4.699088  0
56.613792  82.355331  3.532311  0
55.293850  83.288780  2.359996  0
53.946903  84.192238  1.182449  0
3.108591  53.404213  84.488609  0
4.298547  54.747639  83.571640  0
5.482792  56.063801  82.624382  0
6.661032  57.352585  81.647476  0
7.832989  58.613911  80.641510  0
8.998398  59.847668  79.607063  0
10.157010  61.053814  78.544678  0
11.308585  62.232246  77.454903  0
12.452894  63.382923  76.338257  0
13.589714  64.505783  75.195236  0
14.718826  65.600761  74.026314  0
15.840024  66.667801  72.831978  0
16.953089  67.706833  71.612694  0
18.057823  68.717796  70.368874  0
19.154011  69.700615  69.100990  0
20.241447  70.655220  67.809464  0
21.319931  71.581520  66.494698  0
22.389244  72.479446  65.157127  0
23.449183  73.348892  63.797146  0
24.499525  74.189751  62.415169  0
25.540073  75.001945  61.011585  0
26.570591  75.785339  59.586784  0
27.590874  76.539841  58.141174  0
28.600683  77.265312  56.675144  0
29.599813  77.961639  55.189064  0
30.588028  78.628693  53.683342  0
31.565098  79.266335  52.158340  0
32.530800  79.874428  50.614452  0
33.484894  80.452827  49.052052  0
34.427151  81.001396  47.471512  0
35.357334  81.519981  45.873211  0
36.275204  82.008423  44.257507  0
37.180527  82.466568  42.624794  0
38.073063  82.894264  40.975399  0
38.952568  83.291313  39.309708  0
39.818802  83.657585  37.628067  0
40.671520  83.992874  35.930824  0
41.510464  84.297012  34.218338  0
42.335400  84.569794  32.490955  0
43.146072  84.811050  30.749008  0
43.942207  85.020561  28.992846  0
44.723564  85.198128  27.222805  0
45.489861  85.343529  25.439222  0
46.240837  85.456543  23.642431  0
46.976215  85.536919  21.832771  0
47.695698  85.584442  20.010595  0
48.398998  85.598839  18.176247  0
49.085804  85.579849  16.330078  0
49.755825  85.527222  14.472458  0
50.408718  85.440659  12.603760  0
51.044159  85.319878  10.724380  0
51.661785  85.164589  8.834727  0
52.261265  84.974480  6.935230  0
52.842201  84.749268  5.026357  0
53.404213  84.488609  3.108589  0
5.026360  52.842201  84.749268  0
6.228289  54.181717  83.818550  0
7.424038  55.493706  82.857292  0
8.613321  56.778084  81.866112  0
9.795868  58.034729  80.845596  0
10.971423  59.263588  79.796333  0
12.139741  60.464569  78.718880  0
13.300591  61.637611  77.613777  0
14.453744  62.782650  76.481552  0
15.598984  63.899628  75.322701  0
16.736094  64.988472  74.137711  0
17.864868  66.049141  72.927071  0
18.985088  67.081535  71.691231  0
20.096554  68.085617  70.430649  0
21.199047  69.061302  69.145767  0
22.292370  70.008492  67.837013  0
23.376308  70.927124  66.504814  0
24.450645  71.817093  65.149605  0
25.515167  72.678307  63.771782  0
26.569666  73.510658  62.371754  0
27.613913  74.314041  60.949936  0
28.647682  75.088341  59.506725  0
29.670769  75.833443  58.042526  0
30.682924  76.549210  56.557728  0
31.683928  77.235519  55.052734  0
32.673550  77.892235  53.527927  0
33.651546  78.519218  51.983696  0
34.617695  79.116333  50.420444  0
35.571747  79.683418  48.838535  0
36.513470  80.220337  47.238361  0
37.442619  80.726929  45.620312  0
38.358952  81.203033  43.984749  0
39.262218  81.648483  42.332050  0
40.152187  82.063126  40.662579  0
41.028599  82.446762  38.976711  0
41.891205  82.799255  37.274799  0
42.739754  83.120377  35.557198  0
43.573997  83.409981  33.824272  0
44.393669  83.667839  32.076363  0
45.198509  83.893776  30.313818  0
45.988255  84.087578  28.536995  0
46.762630  84.249008  26.746220  0
47.521366  84.377861  24.941845  0
48.264179  84.473900  23.124212  0
48.990772  84.536880  21.293659  0
49.700840  84.566551  19.450544  0
50.394096  84.562653  17.595232  0
51.070206  84.524918  15.728067  0
51.728840  84.453056  13.849437  0
52.369675  84.346794  11.959727  0
52.992344  84.205826  10.059346  0
53.596478  84.029854  8.148717  0
54.181717  83.818550  6.228286  0
54.747639  83.571640  4.298544  0
6.935233  52.261265  84.974480  0
8.148715  53.596485  84.029846  0
9.355550  54.903934  83.054382  0
10.555464  56.183525  82.048729  0
11.748189  57.435139  81.013481  0
12.933480  58.658718  79.949234  0
14.111101  59.854187  78.856537  0
15.280818  61.021473  77.735931  0
16.442411  62.160515  76.587959  0
17.595667  63.271259  75.413132  0
18.740366  64.353622  74.211922  0
19.876301  65.407555  72.984818  0
21.003258  66.432976  71.732300  0
22.121033  67.429817  70.454803  0
23.229414  68.398003  69.152786  0
24.328182  69.337433  67.826691  0
25.417135  70.248032  66.476936  0
26.496046  71.129692  65.103966  0
27.564707  71.982323  63.708183  0
28.622889  72.805801  62.290009  0
29.670362  73.600021  60.849857  0
30.706911  74.364868  59.388149  0
31.732302  75.100197  57.905270  0
32.746300  75.805908  56.401630  0
33.748665  76.481842  54.877640  0
34.739174  77.127861  53.333687  0
35.717571  77.743828  51.770176  0
36.683620  78.329597  50.187492  0
37.637089  78.885010  48.586040  0
38.577713  79.409920  46.966202  0
39.505257  79.904152  45.328358  0
40.419468  80.367561  43.672897  0
41.320095  80.799957  42.000198  0
42.206890  81.201172  40.310631  0
43.079594  81.571045  38.604565  0
43.937950  81.909386  36.882370  0
44.781708  82.215988  35.144405  0
45.610588  82.490685  33.391026  0
46.424343  82.733253  31.622604  0
47.222694  82.943497  29.839470  0
48.005356  83.121193  28.041983  0
48.772064  83.266121  26.230492  0
49.522522  83.378044  24.405344  0
50.256443  83.456726  22.566887  0
50.973518  83.501907  20.715464  0
51.673431  83.513351  18.851452  0
52.355869  83.490753  16.975203  0
53.020481  83.433846  15.087091  0
53.666943  83.342354  13.187510  0
54.294888  83.215965  11.276855  0
54.903934  83.054382  9.355552  0
55.493710  82.857300  7.424041  0
56.063801  82.624382  5.482789  0
8.834726  51.661789  85.164589  0
10.059344  52.992348  84.205826  0
11.276856  54.294891  83.215965  0
12.486990  55.569309  82.195656  0
13.689493  56.815540  81.145493  0
14.884121  58.033489  80.066071  0
16.070639  59.223091  78.957962  0
17.248823  60.384270  77.821701  0
18.418455  61.516972  76.657829  0
19.579317  62.621128  75.466843  0
20.731194  63.696659  74.249268  0
21.873878  64.743507  73.005562  0
23.007151  65.761597  71.736206  0
24.130816  66.750854  70.441658  0
25.244642  67.711182  69.122375  0
26.348427  68.642502  67.778809  0
27.441942  69.544716  66.411377  0
28.524977  70.417717  65.020531  0
29.597303  71.261406  63.606686  0
30.658697  72.075661  62.170273  0
31.708925  72.860367  60.711697  0
32.747753  73.615395  59.231384  0
33.774960  74.340622  57.729740  0
34.790291  75.035912  56.207188  0
35.793503  75.701103  54.664131  0
36.784363  76.336082  53.100971  0
37.762627  76.940681  51.518112  0
38.728035  77.514748  49.915962  0
39.680347  78.058128  48.294910  0
40.619305  78.570663  46.655354  0
41.544662  79.052185  44.997688  0
42.456165  79.502533  43.322304  0
43.353542  79.921509  41.629574  0
44.236557  80.308960  39.919880  0
45.104935  80.664696  38.193607  0
45.958412  80.988525  36.451115  0
46.796722  81.280243  34.692768  0
47.619595  81.539658  32.918941  0
48.426758  81.766579  31.129990  0
49.217934  81.960747  29.326267  0
49.992832  82.121979  27.508131  0
50.751160  82.250015  25.675934  0
51.492630  82.344635  23.830025  0
52.216923  82.405571  21.970760  0
52.923729  82.432571  20.098497  0
53.612713  82.425369  18.213612  0
54.283539  82.383667  16.316471  0
54.935863  82.307205  14.407467  0
55.569317  82.195656  12.486991  0
56.183517  82.048729  10.555463  0
56.778076  81.866104  8.613322  0
57.352585  81.647476  6.661035  0
10.724379  51.044159  85.319878  0
11.959726  52.369675  84.346794  0
13.187510  53.666943  83.342354  0
14.407467  54.935863  82.307205  0
15.619346  56.176342  81.241943  0
16.822910  57.388313  80.147186  0
18.017929  58.571693  79.023483  0
19.204180  59.726421  77.871391  0
20.381441  60.852425  76.691452  0
21.549501  61.949642  75.484177  0
22.708141  63.017998  74.250061  0
23.857155  64.057419  72.989601  0
24.996328  65.067833  71.703278  0
26.125446  66.049156  70.391548  0
27.244289  67.001289  69.054871  0
28.352636  67.924149  67.693703  0
29.450274  68.817635  66.308472  0
30.536970  69.681633  64.899643  0
31.612497  70.516037  63.467617  0
32.676624  71.320709  62.012859  0
33.729115  72.095551  60.535755  0
34.769730  72.840416  59.036755  0
35.798233  73.555176  57.516273  0
36.814373  74.239693  55.974724  0
37.817905  74.893799  54.412533  0
38.808586  75.517372  52.830097  0
39.786160  76.110252  51.227837  0
40.750370  76.672264  49.606152  0
41.700962  77.203262  47.965458  0
42.637680  77.703079  46.306152  0
43.560265  78.171539  44.628620  0
44.468452  78.608467  42.933277  0
45.361980  79.013680  41.220486  0
46.240589  79.387001  39.490650  0
47.104004  79.728233  37.744141  0
47.951954  80.037193  35.981339  0
48.784172  80.313667  34.202610  0
49.600368  80.557457  32.408318  0
50.400269  80.768326  30.598839  0
51.183578  80.946083  28.774529  0
51.950005  81.090462  26.935741  0
52.699238  81.201241  25.082842  0
53.430977  81.278160  23.216183  0
54.144890  81.320969  21.336132  0
54.840664  81.329391  19.443054  0
55.517921  81.303146  17.537331  0
56.176342  81.241943  15.619344  0
56.815540  81.145493  13.689493  0
57.435139  81.013481  11.748189  0
58.034729  80.845596  9.795870  0
58.613911  80.641510  7.832992  0
12.603757  50.408714  85.440651  0
13.849437  51.728840  84.453056  0
15.087091  53.020481  83.433846  0
16.316475  54.283543  82.383667  0
17.537334  55.517929  81.303146  0
18.749434  56.723564  80.192863  0
19.952553  57.900379  79.053406  0
21.146467  59.048313  77.885323  0
22.330952  60.167274  76.689156  0
23.505798  61.257221  75.465416  0
24.670794  62.318062  74.214630  0
25.825722  63.349716  72.937271  0
26.970362  64.352112  71.633835  0
28.104500  65.325150  70.304771  0
29.227909  66.268745  68.950569  0
30.340380  67.182808  67.571678  0
31.441671  68.067215  66.168541  0
32.531559  68.921860  64.741592  0
33.609810  69.746628  63.291302  0
34.676182  70.541389  61.818081  0
35.730442  71.306015  60.322361  0
36.772331  72.040375  58.804588  0
37.801624  72.744324  57.265175  0
38.818050  73.417717  55.704563  0
39.821365  74.060394  54.123158  0
40.811314  74.672226  52.521385  0
41.787643  75.253021  50.899658  0
42.750084  75.802643  49.258396  0
43.698380  76.320900  47.598007  0
44.632263  76.807648  45.918896  0
45.551472  77.262688  44.221478  0
46.455750  77.685860  42.506130  0
47.344803  78.076958  40.773262  0
48.218384  78.435791  39.023254  0
49.076199  78.762177  37.256489  0
49.917969  79.055908  35.473351  0
50.743427  79.316772  33.674225  0
51.552273  79.544563  31.859463  0
52.344212  79.739044  30.029448  0
53.118954  79.899986  28.184540  0
53.876186  80.027145  26.325104  0
54.615589  80.120285  24.451508  0
55.336853  80.179131  22.564117  0
56.039623  80.203423  20.663300  0
56.723564  80.192863  18.749432  0
57.388309  80.147186  16.822906  0
58.033489  80.066071  14.884121  0
58.658718  79.949234  12.933480  0
59.263588  79.796333  10.971423  0
59.847668  79.607063  8.998400  0
14.472458  49.755825  85.527222  0
15.728068  51.070206  84.524918  0
16.975203  52.355862  83.490753  0
18.213615  53.612713  82.425369  0
19.443056  54.840656  81.329391  0
20.663300  56.039623  80.203415  0
21.874119  57.209541  79.048027  0
23.075287  58.350330  77.863792  0
24.266592  59.461922  76.651230  0
25.447815  60.544258  75.410889  0
26.618744  61.597237  74.143257  0
27.779152  62.620777  72.848854  0
28.928827  63.614819  71.528160  0
30.067545  64.579247  70.181648  0
31.195082  65.513969  68.809784  0
32.311207  66.418877  67.413040  0
33.415691  67.293877  65.991867  0
34.508293  68.138824  64.546715  0
35.588779  68.953613  63.078022  0
36.656902  69.738121  61.586243  0
37.712425  70.492195  60.071819  0
38.755077  71.215706  58.535183  0
39.784626  71.908493  56.976761  0
40.800804  72.570427  55.396999  0
41.803360  73.201332  53.796318  0
42.792027  73.801064  52.175140  0
43.766537  74.369446  50.533890  0
44.726639  74.906326  48.873001  0
45.672054  75.411514  47.192871  0
46.602509  75.884850  45.493919  0
47.517742  76.326118  43.776550  0
48.417480  76.735176  42.041180  0
49.301430  77.111801  40.288193  0
50.169334  77.455811  38.517979  0
51.020897  77.766991  36.730942  0
51.855827  78.045151  34.927460  0
52.673851  78.290047  33.107903  0
53.474655  78.501480  31.272661  0
54.257935  78.679192  29.422102  0
55.023392  78.822960  27.556597  0
55.770702  78.932541  25.676516  0
56.499519  79.007645  23.782230  0
57.209541  79.048035  21.874119  0
57.900379  79.053406  19.952557  0
58.571693  79.023483  18.017923  0
59.223091  78.957962  16.070637  0
59.854187  78.856537  14.111101  0
60.464569  78.718880  12.139740  0
61.053814  78.544678  10.157010  0
16.330078  49.085804  85.579849  0
17.595232  50.394093  84.562653  0
18.851454  51.673431  83.513344  0
20.098501  52.923729  82.432571  0
21.336134  54.144890  81.320969  0
22.564117  55.336853  80.179131  0
23.782230  56.499527  79.007652  0
24.990255  57.632847  77.807083  0
26.187965  58.736732  76.577972  0
27.375151  59.811111  75.320854  0
28.551582  60.855904  74.036247  0
29.717045  61.871006  72.724655  0
30.871315  62.856350  71.386559  0
32.014168  63.811829  70.022446  0
33.145367  64.737335  68.632805  0
34.264687  65.632767  67.218079  0
35.371883  66.498009  65.778748  0
36.466717  67.332939  64.315269  0
37.548946  68.137421  62.828091  0
38.618313  68.911324  61.317654  0
39.674583  69.654503  59.784428  0
40.717476  70.366821  58.228836  0
41.746750  71.048126  56.651329  0
42.762142  71.698250  55.052341  0
43.763374  72.317047  53.432312  0
44.750183  72.904343  51.791664  0
45.722313  73.459976  50.130840  0
46.679485  73.983765  48.450256  0
47.621418  74.475540  46.750336  0
48.547840  74.935112  45.031494  0
49.458481  75.362282  43.294155  0
50.353046  75.756889  41.538708  0
51.231270  76.118698  39.765572  0
52.092846  76.447525  37.975128  0
52.937492  76.743156  36.167797  0
53.764912  77.005371  34.343937  0
54.574814  77.233955  32.503944  0
55.366871  77.428665  30.648205  0
56.140781  77.589249  28.777090  0
56.896214  77.715485  26.890982  0
57.632847  77.807083  24.990255  0
58.350330  77.863792  23.075291  0
59.048313  77.885323  21.146469  0
59.726421  77.871391  19.204182  0
60.384274  77.821701  17.248821  0
61.021473  77.735931  15.280816  0
61.637611  77.613777  13.300590  0
62.232246  77.454903  11.308583  0
18.176247  48.398998  85.598839  0
19.450550  49.700844  84.566559  0
20.715464  50.973515  83.501915  0
21.970755  52.216919  82.405571  0
23.216181  53.430977  81.278160  0
24.451506  54.615589  80.120285  0
25.676516  55.770702  78.932541  0
26.890982  56.896214  77.715485  0
28.094685  57.992065  76.469658  0
29.287399  59.058163  75.195625  0
30.468912  60.094425  73.893875  0
31.638988  61.100765  72.564941  0
32.797405  62.077084  71.209312  0
33.943935  63.023281  69.827469  0
35.078339  63.939247  68.419899  0
36.200375  64.824867  66.987083  0
37.309803  65.680031  65.529480  0
38.406372  66.504585  64.047554  0
39.489849  67.298424  62.541775  0
40.559952  68.061394  61.012596  0
41.616436  68.793343  59.460468  0
42.659031  69.494141  57.885845  0
43.687496  70.163612  56.289158  0
44.701530  70.801613  54.670879  0
45.700882  71.407959  53.031425  0
46.685272  71.982491  51.371250  0
47.654434  72.525032  49.690781  0
48.608082  73.035400  47.990459  0
49.545933  73.513420  46.270691  0
50.467705  73.958893  44.531918  0
51.373116  74.371628  42.774555  0
52.261887  74.751427  40.999004  0
53.133717  75.098083  39.205685  0
53.988308  75.411377  37.394985  0
54.825371  75.691109  35.567322  0
55.644588  75.937050  33.723068  0
56.445660  76.148941  31.862616  0
57.228260  76.326561  29.986362  0
57.992065  76.469658  28.094685  0
58.736732  76.577972  26.187965  0
59.461929  76.651237  24.266596  0
60.167278  76.689156  22.330957  0
60.852425  76.691452  20.381441  0
61.516968  76.657829  18.418459  0
62.160515  76.587959  16.442408  0
62.782650  76.481552  14.453742  0
63.382923  76.338257  12.452893  0
20.010597  47.695698  85.584442  0
21.293661  48.990772  84.536880  0
22.566885  50.256443  83.456726  0
23.830023  51.492634  82.344635  0
25.082838  52.699238  81.201233  0
26.325108  53.876190  80.027153  0
27.556597  55.023392  78.822960  0
28.777092  56.140785  77.589249  0
29.986362  57.228260  76.326561  0
31.184187  58.285751  75.035439  0
32.370335  59.313164  73.716408  0
33.544586  60.310410  72.369987  0
34.706699  61.277378  70.996681  0
35.856441  62.213963  69.596970  0
36.993568  63.120052  68.171364  0
38.117840  63.995537  66.720322  0
39.229012  64.840279  65.244331  0
40.326820  65.654152  63.743862  0
41.411018  66.437012  62.219372  0
42.481331  67.188721  60.671345  0
43.537514  67.909119  59.100224  0
44.579269  68.598061  57.506474  0
45.606361  69.255379  55.890541  0
46.618481  69.880905  54.252880  0
47.615379  70.474480  52.593945  0
48.596767  71.035912  50.914169  0
49.562363  71.565033  49.214001  0
50.511879  72.061646  47.493870  0
51.445026  72.525581  45.754223  0
52.361530  72.956619  43.995472  0
53.261082  73.354576  42.218037  0
54.143402  73.719238  40.422340  0
55.008183  74.050392  38.608803  0
55.855122  74.347816  36.777817  0
56.683907  74.611290  34.929783  0
57.494217  74.840584  33.065109  0
58.285755  75.035446  31.184187  0
59.058163  75.195625  29.287399  0
59.811115  75.320854  27.375149  0
60.544258  75.410881  25.447815  0
61.257221  75.465416  23.505800  0
61.949638  75.484177  21.549501  0
62.621117  75.466843  19.579315  0
63.271252  75.413132  17.595669  0
63.899628  75.322701  15.598981  0
64.505783  75.195236  13.589711  0
21.832773  46.976215  85.536919  0
23.124210  48.264179  84.473907  0
24.405342  49.522522  83.378044  0
25.675930  50.751160  82.250023  0
26.935741  51.950005  81.090462  0
28.184540  53.118954  79.899994  0
29.422104  54.257938  78.679199  0
30.648203  55.366863  77.428658  0
31.862616  56.445656  76.148933  0
33.065105  57.494221  74.840584  0
34.255455  58.512459  73.504112  0
35.433422  59.500282  72.140068  0
36.598763  60.457573  70.748947  0
37.751251  61.384228  69.331230  0
38.890625  62.280125  67.887444  0
40.016644  63.145142  66.418060  0
41.129047  63.979149  64.923561  0
42.227589  64.781998  63.404438  0
43.311985  65.553558  61.861145  0
44.381977  66.293678  60.294170  0
45.437309  67.002205  58.703964  0
46.477676  67.678963  57.091000  0
47.502831  68.323799  55.455734  0
48.512474  68.936539  53.798626  0
49.506336  69.516998  52.120132  0
50.484119  70.065010  50.420704  0
51.445545  70.580383  48.700764  0
52.390327  71.062920  46.960789  0
53.318153  71.512428  45.201191  0
54.228745  71.928703  43.422405  0
55.121792  72.311539  41.624866  0
55.997002  72.660721  39.808990  0
56.854050  72.976036  37.975185  0
57.692654  73.257240  36.123875  0
58.512463  73.504112  34.255459  0
59.313164  73.716415  32.370338  0
60.094425  73.893875  30.468908  0
60.855904  74.036247  28.551582  0
61.597237  74.143257  26.618742  0
62.318058  74.214630  24.670794  0
63.017998  74.250061  22.708143  0
63.696655  74.249268  20.731194  0
64.353622  74.211922  18.740368  0
64.988472  74.137718  16.736099  0
65.600761  74.026314  14.718822  0
23.642429  46.240837  85.456543  0
24.941845  47.521366  84.377861  0
26.230490  48.772060  83.266121  0
27.508131  49.992832  82.121979  0
28.774530  51.183578  80.946083  0
30.029448  52.344212  79.739044  0
31.272667  53.474651  78.501480  0
32.503948  54.574810  77.233955  0
33.723064  55.644588  75.937050  0
34.929783  56.683899  74.611290  0
36.123875  57.692654  73.257240  0
37.305099  58.670727  71.875412  0
38.473198  59.618023  70.466324  0
39.627945  60.534424  69.030495  0
40.769077  61.419804  67.568405  0
41.896343  62.274036  66.080559  0
43.009476  63.096985  64.567444  0
44.108212  63.888500  63.029552  0
45.192287  64.648453  61.467354  0
46.261421  65.376656  59.881329  0
47.315346  66.072975  58.271946  0
48.353767  66.737236  56.639687  0
49.376411  67.369263  54.985008  0
50.382992  67.968887  53.308376  0
51.373226  68.535927  51.610264  0
52.346809  69.070183  49.891094  0
53.303452  69.571480  48.151348  0
54.242859  70.039597  46.391453  0
55.164734  70.474358  44.611855  0
56.068764  70.875534  42.812992  0
56.954651  71.242912  40.995296  0
57.822075  71.576286  39.159187  0
58.670727  71.875412  37.305096  0
59.500275  72.140060  35.433422  0
60.310406  72.369987  33.544586  0
61.100765  72.564941  31.638990  0
61.871014  72.724648  29.717045  0
62.620777  72.848854  27.779150  0
63.349716  72.937271  25.825722  0
64.057419  72.989609  23.857155  0
64.743507  73.005562  21.873878  0
65.407555  72.984818  19.876303  0
66.049133  72.927078  17.864868  0
66.667801  72.831978  15.840025  0
25.439219  45.489864  85.343529  0
26.746220  46.762634  84.249008  0
28.041983  48.005356  83.121193  0
29.326263  49.217934  81.960747  0
30.598843  50.400272  80.768333  0
31.859461  51.552269  79.544563  0
33.107910  52.673851  78.290047  0
34.343937  53.764915  77.005379  0
35.567314  54.825371  75.691109  0
36.777813  55.855122  74.347809  0
37.975185  56.854057  72.976036  0
39.159187  57.822075  71.576286  0
40.329575  58.759060  70.149109  0
41.486092  59.664890  68.695007  0
42.628487  60.539436  67.214493  0
43.756485  61.382568  65.708061  0
44.869823  62.194138  64.176216  0
45.968235  62.974007  62.619446  0
47.051445  63.722012  61.038235  0
48.119164  64.437996  59.433071  0
49.171124  65.121796  57.804432  0
50.207024  65.773239  56.152790  0
51.226585  66.392143  54.478619  0
52.229507  66.978325  52.782391  0
53.215508  67.531616  51.064575  0
54.184277  68.051796  49.325611  0
55.135517  68.538689  47.565979  0
56.068928  68.992081  45.786114  0
56.984192  69.411758  43.986469  0
57.881008  69.797516  42.167473  0
58.759060  70.149101  40.329575  0
59.618023  70.466324  38.473198  0
60.457573  70.748932  36.598766  0
61.277370  70.996681  34.706696  0
62.077084  71.209312  32.797413  0
62.856350  71.386559  30.871315  0
63.614822  71.528160  28.928825  0
64.352112  71.633835  26.970362  0
65.067833  71.703278  24.996328  0
65.761597  71.736206  23.007153  0
66.432976  71.732292  21.003262  0
67.081535  71.691231  18.985088  0
67.706833  71.612686  16.953093  0
27.222805  44.723564  85.198135  0
28.536995  45.988255  84.087578  0
29.839468  47.222683  82.943497  0
31.129992  48.426758  81.766579  0
32.408325  49.600368  80.557457  0
33.674221  50.743423  79.316772  0
34.927460  51.855827  78.045151  0
36.167797  52.937492  76.743156  0
37.394989  53.988316  75.411385  0
38.608803  55.008183  74.050392  0
39.808987  55.996994  72.660713  0
40.995300  56.954647  71.242920  0
42.167473  57.881008  69.797516  0
43.325268  58.775959  68.325005  0
44.468407  59.639359  66.825943  0
45.596615  60.471073  65.300819  0
46.709637  61.270966  63.750130  0
47.807182  62.038857  62.174377  0
48.888973  62.774612  60.574051  0
49.954720  63.478058  58.949646  0
51.004143  64.149025  57.301651  0
52.036953  64.787331  55.630550  0
53.052830  65.392792  53.936806  0
54.051502  65.965225  52.220901  0
55.032654  66.504448  50.483315  0
55.995991  67.010246  48.724495  0
56.941189  67.482414  46.944912  0
57.867950  67.920738  45.145020  0
58.775959  68.325012  43.325268  0
59.664890  68.695007  41.486092  0
60.534428  69.030495  39.627945  0
61.384228  69.331230  37.751251  0
62.213959  69.596970  35.856441  0
63.023273  69.827461  33.943935  0
63.811829  70.022446  32.014168  0
64.579247  70.181648  30.067549  0
65.325157  70.304771  28.104496  0
66.049149  70.391548  26.125444  0
66.750854  70.441658  24.130812  0
67.429817  70.454803  22.121033  0
68.085625  70.430656  20.096554  0
68.717796  70.368874  18.057823  0
28.992846  43.942207  85.020561  0
30.313818  45.198509  83.893776  0
31.622604  46.424343  82.733253  0
32.918945  47.619598  81.539665  0
34.202610  48.784168  80.313675  0
35.473351  49.917969  79.055908  0
36.730942  51.020897  77.766991  0
37.975128  52.092846  76.447525  0
39.205685  53.133713  75.098091  0
40.422340  54.143402  73.719238  0
41.624866  55.121792  72.311539  0
42.812992  56.068764  70.875534  0
43.986469  56.984192  69.411758  0
45.145023  57.867954  67.920738  0
46.288383  58.719894  66.403000  0
47.416286  59.539890  64.859055  0
48.528446  60.327782  63.289402  0
49.624573  61.083408  61.694565  0
50.704395  61.806595  60.075027  0
51.767597  62.497192  58.431297  0
52.813911  63.155010  56.763855  0
53.843010  63.779865  55.073200  0
54.854630  64.371582  53.359802  0
55.848431  64.929962  51.624153  0
56.824116  65.454788  49.866726  0
57.781380  65.945877  48.087978  0
58.719894  66.403000  46.288383  0
59.639362  66.825951  44.468407  0
60.539440  67.214493  42.628479  0
61.419807  67.568405  40.769073  0
62.280125  67.887444  38.890625  0
63.120052  68.171364  36.993568  0
63.939247  68.419899  35.078339  0
64.737335  68.632805  33.145367  0
