#!ascii version in FreeSurfer format (SUMA)
32492 64980
-30.506910  -91.989967  -24.640888  0
-29.651787  -91.767998  -26.446268  0
-28.783030  -91.510757  -28.236835  0
-27.900900  -91.218452  -30.012197  0
-27.005680  -90.891327  -31.771975  0
-26.097649  -90.529587  -33.515762  0
-25.177059  -90.133423  -35.243179  0
-24.244196  -89.703033  -36.953804  0
-23.299320  -89.238625  -38.647251  0
-22.342699  -88.740356  -40.323097  0
-21.374594  -88.208427  -41.980938  0
-20.395283  -87.643013  -43.620346  0
-19.405016  -87.044273  -45.240913  0
-18.404064  -86.412369  -46.842205  0
-17.392683  -85.747467  -48.423801  0
-16.371143  -85.049736  -49.985283  0
-15.339689  -84.319298  -51.526199  0
-14.298594  -83.556320  -53.046135  0
-13.248099  -82.760918  -54.544643  0
-12.188466  -81.933243  -56.021297  0
-11.119941  -81.073410  -57.475639  0
-10.042773  -80.181526  -58.907253  0
-8.957213  -79.257729  -60.315678  0
-7.863503  -78.302094  -61.700451  0
-6.761889  -77.314743  -63.061142  0
-5.652616  -76.295731  -64.397270  0
-4.535933  -75.245155  -65.708382  0
-3.412078  -74.163086  -66.993980  0
-2.281304  -73.049583  -68.253593  0
-1.143860  -71.904701  -69.486725  0
-0.000001  -70.728493  -70.692863  0
1.150010  -69.520988  -71.871475  0
2.305908  -68.282257  -73.022026  0
3.467407  -67.012314  -74.143959  0
4.634218  -65.711227  -75.236687  0
5.806036  -64.379005  -76.299622  0
6.982539  -63.015739  -77.332138  0
-37.777222  -92.568947  -1.967597  0
-37.093502  -92.782867  -3.925576  0
-36.392612  -92.957413  -5.873431  0
-35.674904  -93.092934  -7.810685  0
-34.940712  -93.189804  -9.736880  0
-34.190384  -93.248367  -11.651582  0
-33.424236  -93.268959  -13.554367  0
-32.642593  -93.251900  -15.444827  0
-31.845751  -93.197517  -17.322554  0
-31.034019  -93.106079  -19.187164  0
-30.207693  -92.977882  -21.038254  0
-29.367060  -92.813194  -22.875444  0
-28.512417  -92.612274  -24.698334  0
-27.644037  -92.375366  -26.506556  0
-26.762209  -92.102722  -28.299692  0
-25.867201  -91.794556  -30.077360  0
-24.959303  -91.451080  -31.839161  0
-24.038784  -91.072525  -33.584690  0
-23.105919  -90.659088  -35.313549  0
-22.160984  -90.210953  -37.025318  0
-21.204243  -89.728325  -38.719585  0
-20.235977  -89.211395  -40.395920  0
-19.256453  -88.660339  -42.053925  0
-18.265938  -88.075317  -43.693157  0
-17.264704  -87.456528  -45.313187  0
-16.253017  -86.804108  -46.913589  0
-15.231142  -86.118240  -48.493923  0
-14.199339  -85.399063  -50.053749  0
-13.157882  -84.646729  -51.592640  0
-12.107021  -83.861382  -53.110142  0
-11.047023  -83.043175  -54.605804  0
-9.978136  -82.192207  -56.079197  0
-8.900620  -81.308632  -57.529861  0
-7.814728  -80.392540  -58.957355  0
-6.720710  -79.444046  -60.361206  0
-5.618819  -78.463257  -61.740959  0
-4.509296  -77.450249  -63.096146  0
-3.392406  -76.405128  -64.426300  0
-2.268390  -75.327942  -65.730934  0
-1.137503  -74.218773  -67.009552  0
0.000000  -73.077675  -68.261650  0
1.143859  -71.904701  -69.486725  0
2.293807  -70.699898  -70.684242  0
3.449572  -69.463303  -71.853668  0
4.610874  -68.194954  -72.994438  0
5.777410  -66.894897  -74.105957  0
6.948876  -65.563187  -75.187645  0
8.124947  -64.199844  -76.238869  0
-35.946098  -93.295143  -1.972959  0
-35.247101  -93.499458  -3.936100  0
-34.531105  -93.663887  -5.888916  0
-33.798470  -93.788803  -7.830929  0
-33.049534  -93.874588  -9.761682  0
-32.284641  -93.921577  -11.680732  0
-31.504107  -93.930115  -13.587657  0
-30.708248  -93.900528  -15.482038  0
-29.897379  -93.833130  -17.363470  0
-29.071798  -93.728210  -19.231552  0
-28.231812  -93.586060  -21.085888  0
-27.377699  -93.406944  -22.926071  0
-26.509768  -93.191124  -24.751717  0
-25.628290  -92.938835  -26.562424  0
-24.733564  -92.650345  -28.357792  0
-23.825861  -92.325859  -30.137407  0
-22.905466  -91.965607  -31.900881  0
-21.972666  -91.569801  -33.647785  0
-21.027725  -91.138641  -35.377712  0
-20.070934  -90.672333  -37.090237  0
-19.102564  -90.171059  -38.784939  0
-18.122894  -89.635017  -40.461388  0
-17.132187  -89.064384  -42.119156  0
-16.130735  -88.459335  -43.757801  0
-15.118798  -87.820038  -45.376884  0
-14.096654  -87.146667  -46.975975  0
-13.064568  -86.439377  -48.554626  0
-12.022807  -85.698318  -50.112377  0
-10.971641  -84.923637  -51.648796  0
-9.911337  -84.115486  -53.163422  0
-8.842152  -83.274002  -54.655800  0
-7.764347  -82.399292  -56.125488  0
-6.678186  -81.491508  -57.572010  0
-5.583919  -80.550735  -58.994900  0
-4.481808  -79.577095  -60.393703  0
-3.372103  -78.570663  -61.767952  0
-2.255061  -77.531548  -63.117146  0
-1.130941  -76.459808  -64.440811  0
0.000000  -75.355537  -65.738449  0
1.137503  -74.218773  -67.009544  0
2.281303  -73.049583  -68.253593  0
3.431130  -71.848015  -69.470070  0
4.586706  -70.614105  -70.658394  0
5.747744  -69.347900  -71.818047  0
6.913948  -68.049431  -72.948418  0
8.085002  -66.718742  -74.048912  0
9.260579  -65.355881  -75.118904  0
-34.105980  -93.983345  -1.978022  0
-33.391785  -94.177589  -3.946025  0
-32.660774  -94.331451  -5.903504  0
-31.913315  -94.445312  -7.849977  0
-31.149738  -94.519562  -9.784984  0
-30.370386  -94.554535  -11.708079  0
-29.575575  -94.550583  -13.618834  0
-28.765627  -94.508018  -15.516830  0
-27.940853  -94.427162  -17.401646  0
-27.101564  -94.308327  -19.272888  0
-26.248055  -94.151772  -21.130136  0
-25.380619  -93.957779  -22.972996  0
-24.499557  -93.726616  -24.801054  0
-23.605154  -93.458527  -26.613913  0
-22.697708  -93.153740  -28.411156  0
-21.777496  -92.812508  -30.192375  0
-20.844809  -92.435028  -31.957155  0
-19.899927  -92.021523  -33.705067  0
-18.943130  -91.572205  -35.435688  0
-17.974718  -91.087273  -37.148598  0
-16.994949  -90.566910  -38.843346  0
-16.004120  -90.011314  -40.519512  0
-15.002499  -89.420662  -42.176651  0
-13.990371  -88.795135  -43.814304  0
-12.968010  -88.134895  -45.432041  0
-11.935692  -87.440117  -47.029404  0
-10.893690  -86.710953  -48.605938  0
-9.842273  -85.947571  -50.161190  0
-8.781720  -85.150093  -51.694706  0
-7.712292  -84.318680  -53.206013  0
-6.634254  -83.453468  -54.694656  0
-5.547875  -82.554558  -56.160175  0
-4.453416  -81.622101  -57.602085  0
-3.351138  -80.656174  -59.019917  0
-2.241302  -79.656898  -60.413197  0
-1.124169  -78.624359  -61.781441  0
0.000002  -77.558640  -63.124138  0
1.130944  -76.459808  -64.440811  0
2.268392  -75.327942  -65.730934  0
3.412080  -74.163086  -66.993980  0
4.561730  -72.965302  -68.229424  0
5.717062  -71.734619  -69.436722  0
6.877784  -70.471100  -70.615288  0
8.043595  -69.174767  -71.764565  0
9.214183  -67.845650  -72.883926  0
10.389209  -66.483803  -73.972755  0
-32.257385  -94.633659  -1.982790  0
-31.528080  -94.817383  -3.955362  0
-30.782162  -94.960220  -5.917208  0
-30.019972  -95.062607  -7.867844  0
-29.241858  -95.124863  -9.806806  0
-28.448158  -95.147377  -11.733644  0
-27.639196  -95.130486  -13.647928  0
-26.815287  -95.074509  -15.549226  0
-25.976749  -94.979767  -17.437120  0
-25.123886  -94.846550  -19.311192  0
-24.257010  -94.675156  -21.171038  0
-23.376408  -94.465851  -23.016237  0
-22.482389  -94.218895  -24.846375  0
-21.575239  -93.934540  -26.661045  0
-20.655258  -93.613022  -28.459824  0
-19.722734  -93.254578  -30.242283  0
-18.777958  -92.859444  -32.008011  0
-17.821217  -92.427803  -33.756561  0
-16.852795  -91.959877  -35.487514  0
-15.872989  -91.455864  -37.200417  0
-14.882072  -90.915985  -38.894840  0
-13.880342  -90.340378  -40.570328  0
-12.868069  -89.729263  -42.226429  0
-11.845544  -89.082809  -43.862698  0
-10.813042  -88.401176  -45.478664  0
-9.770848  -87.684540  -47.073891  0
-8.719236  -86.933060  -48.647896  0
-7.658481  -86.146889  -50.200214  0
-6.588858  -85.326157  -51.730389  0
-5.510638  -84.471024  -53.237942  0
-4.424094  -83.581612  -54.722397  0
-3.329490  -82.658043  -56.183285  0
-2.227097  -81.700432  -57.620125  0
-1.117177  -80.708893  -59.032425  0
-0.000001  -79.683495  -60.419689  0
1.124167  -78.624359  -61.781441  0
2.255063  -77.531548  -63.117146  0
3.392408  -76.405128  -64.426300  0
4.535934  -75.245155  -65.708382  0
5.685358  -74.051704  -66.962837  0
6.840396  -72.824806  -68.189125  0
8.000752  -71.564499  -69.386665  0
9.166121  -70.270836  -70.554886  0
10.336183  -68.943840  -71.693161  0
11.510607  -67.583549  -72.800888  0
-30.400812  -95.246208  -1.987267  0
-29.656498  -95.418953  -3.964117  0
-28.895763  -95.550346  -5.930037  0
-28.118952  -95.640778  -7.884542  0
-27.326420  -95.690613  -9.827164  0
-26.518494  -95.700226  -11.757446  0
-25.695498  -95.669937  -13.674951  0
-24.857763  -95.600098  -15.579246  0
-24.005598  -95.491013  -17.469896  0
-23.139322  -95.342987  -19.346493  0
-22.259230  -95.156296  -21.208605  0
-21.365629  -94.931229  -23.055820  0
-20.458832  -94.668037  -24.887699  0
-19.539124  -94.366982  -26.703842  0
-18.606812  -94.028290  -28.503798  0
-17.662182  -93.652206  -30.287157  0
-16.705534  -93.238945  -32.053471  0
-15.737161  -92.788719  -33.802296  0
-14.757350  -92.301743  -35.533199  0
-13.766400  -91.778221  -37.245731  0
-12.764593  -91.218338  -38.939430  0
-11.752225  -90.622292  -40.613842  0
-10.729577  -89.990265  -42.268528  0
-9.696941  -89.322426  -43.903000  0
-8.654597  -88.618950  -45.516796  0
-7.602829  -87.880005  -47.109455  0
-6.541923  -87.105751  -48.680508  0
-5.472149  -86.296326  -50.229462  0
-4.393791  -85.451881  -51.755867  0
-3.307125  -84.572563  -53.259216  0
-2.212421  -83.658485  -54.739033  0
-1.109956  -82.709770  -56.194843  0
0.000000  -81.726540  -57.626133  0
1.117176  -80.708893  -59.032425  0
2.241301  -79.656898  -60.413197  0
3.372100  -78.570663  -61.767948  0
4.509301  -77.450249  -63.096146  0
5.652621  -76.295731  -64.397278  0
6.801775  -75.107162  -65.670769  0
7.956473  -73.884583  -66.916084  0
9.116418  -72.628052  -68.132637  0
10.281298  -71.337593  -69.319855  0
11.450789  -70.013260  -70.477112  0
12.624555  -68.655067  -71.603775  0
-28.536777  -95.821121  -1.991459  0
-27.777550  -95.982437  -3.972298  0
-27.002098  -96.101921  -5.942004  0
-26.210781  -96.179947  -7.900084  0
-25.403938  -96.216911  -9.846068  0
-24.581909  -96.213165  -11.779497  0
-23.745022  -96.169044  -13.699921  0
-22.893600  -96.084900  -15.606904  0
-22.027966  -95.961021  -17.500004  0
-21.148422  -95.797729  -19.378801  0
-20.255293  -95.595314  -21.242861  0
-19.348879  -95.354027  -23.091755  0
-18.429485  -95.074158  -24.925049  0
-17.497417  -94.755943  -26.742317  0
-16.552971  -94.399628  -28.543114  0
-15.596456  -94.005440  -30.327005  0
-14.628166  -93.573608  -32.093548  0
-13.648396  -93.104355  -33.842285  0
-12.657442  -92.597878  -35.572773  0
-11.655607  -92.054382  -37.284542  0
-10.643176  -91.474068  -38.977135  0
-9.620451  -90.857124  -40.650093  0
-8.587711  -90.203720  -42.302948  0
-7.545259  -89.514046  -43.935219  0
-6.493377  -88.788277  -45.546440  0
-5.432353  -88.026558  -47.136116  0
-4.362470  -87.229057  -48.703789  0
-3.284011  -86.395927  -50.248955  0
-2.197263  -85.527313  -51.771141  0
-1.102499  -84.623329  -53.269852  0
0.000000  -83.684113  -54.744576  0
1.109956  -82.709770  -56.194843  0
2.227093  -81.700439  -57.620121  0
3.351136  -80.656174  -59.019920  0
4.481803  -79.577095  -60.393711  0
5.618815  -78.463249  -61.740959  0
6.761891  -77.314743  -63.061142  0
7.910734  -76.131599  -64.353699  0
9.065054  -74.913902  -65.618065  0
10.224545  -73.661682  -66.853683  0
11.388894  -72.374977  -68.059937  0
12.557774  -71.053841  -69.236214  0
13.730841  -69.698296  -70.381897  0
-26.665739  -96.358482  -1.995366  0
-25.891703  -96.507927  -3.979911  0
-25.101658  -96.615044  -5.953114  0
-24.295946  -96.680229  -7.914483  0
-23.474918  -96.703865  -9.863536  0
-22.638926  -96.686317  -11.799813  0
-21.788280  -96.627907  -13.722851  0
-20.923326  -96.528999  -15.632216  0
-20.044374  -96.389893  -17.527454  0
-19.151741  -96.210884  -19.408138  0
-18.245750  -95.992271  -21.273817  0
-17.326700  -95.734337  -23.124063  0
-16.394915  -95.437325  -24.958431  0
-15.450691  -95.101501  -26.776489  0
-14.494335  -94.727112  -28.577776  0
-13.526162  -94.314369  -30.361847  0
-12.546466  -93.863525  -32.128258  0
-11.555546  -93.374786  -33.876534  0
-10.553706  -92.848351  -35.606228  0
-9.541253  -92.284431  -37.316860  0
-8.518474  -91.683220  -39.007973  0
-7.485674  -91.044922  -40.679073  0
-6.443142  -90.369690  -42.329708  0
-5.391177  -89.657730  -43.959377  0
-4.330072  -88.909187  -45.567593  0
-3.260114  -88.124245  -47.153889  0
-2.181590  -87.303047  -48.717758  0
-1.094788  -86.445732  -50.258705  0
0.000002  -85.552444  -51.776237  0
1.102500  -84.623329  -53.269852  0
2.212425  -83.658485  -54.739033  0
3.329490  -82.658043  -56.183285  0
4.453416  -81.622101  -57.602077  0
5.583918  -80.550735  -58.994900  0
6.720710  -79.444038  -60.361206  0
7.863502  -78.302101  -61.700451  0
9.012005  -77.124962  -63.012089  0
10.165910  -75.912689  -64.295555  0
11.324913  -74.665329  -65.550240  0
12.488692  -73.382927  -66.775574  0
13.656921  -72.065529  -67.970932  0
14.829251  -70.713165  -69.135674  0
-24.788198  -96.858398  -1.998994  0
-23.999462  -96.995506  -3.986959  0
-23.194929  -97.089821  -5.963377  0
-22.374952  -97.141708  -7.927743  0
-21.539883  -97.151573  -9.879576  0
-20.690056  -97.119751  -11.818399  0
-19.825813  -97.046608  -13.743759  0
-18.947479  -96.932487  -15.655197  0
-18.055376  -96.777687  -17.552259  0
-17.149834  -96.582520  -19.434505  0
-16.231165  -96.347267  -21.301491  0
-15.299684  -96.072205  -23.152761  0
-14.355710  -95.757607  -24.987867  0
-13.399545  -95.403717  -26.806370  0
-12.431514  -95.010796  -28.607798  0
-11.451914  -94.579048  -30.391693  0
-10.461056  -94.108742  -32.157616  0
-9.459246  -93.600044  -33.905064  0
-8.446786  -93.053200  -35.633587  0
-7.423993  -92.468407  -37.342712  0
-6.391147  -91.845856  -39.031944  0
-5.348574  -91.185730  -40.700806  0
-4.296550  -90.488220  -42.348816  0
-3.235391  -89.753494  -43.975471  0
-2.165383  -88.981728  -45.580292  0
-1.086820  -88.173073  -47.162773  0
0.000000  -87.327690  -48.722416  0
1.094795  -86.445732  -50.258705  0
2.197266  -85.527313  -51.771141  0
3.307130  -84.572563  -53.259216  0
4.424094  -83.581612  -54.722397  0
5.547876  -82.554558  -56.160179  0
6.678185  -81.491508  -57.572006  0
7.814728  -80.392540  -58.957355  0
8.957212  -79.257729  -60.315678  0
10.105337  -78.087143  -61.646400  0
11.258802  -76.880859  -62.948959  0
12.417285  -75.638916  -64.222771  0
13.580468  -74.361374  -65.467216  0
14.748013  -73.048256  -66.681694  0
15.919573  -71.699608  -67.865547  0
-22.904623  -97.320953  -2.002343  0
-22.101301  -97.445290  -3.993452  0
-21.282406  -97.526329  -5.972798  0
-20.448298  -97.564468  -7.939877  0
-19.599318  -97.560089  -9.894194  0
-18.735819  -97.513565  -11.835275  0
-17.858128  -97.425232  -13.762649  0
-16.966581  -97.295441  -15.675854  0
-16.061514  -97.124489  -17.574430  0
-15.143245  -96.912697  -19.457928  0
-14.212097  -96.660347  -21.325886  0
-13.268389  -96.367714  -23.177851  0
-12.312445  -96.035072  -25.013361  0
-11.344572  -95.662674  -26.831964  0
-10.365095  -95.250748  -28.633183  0
-9.374316  -94.799545  -30.416559  0
-8.372556  -94.309296  -32.181618  0
-7.360124  -93.780212  -33.927879  0
-6.337322  -93.212486  -35.654865  0
-5.304468  -92.606346  -37.362087  0
-4.261860  -91.961990  -39.049061  0
-3.209811  -91.279579  -40.715286  0
-2.148614  -90.559311  -42.360279  0
-1.078579  -89.801376  -43.983521  0
0.000000  -89.005905  -45.584530  0
1.086820  -88.173073  -47.162773  0
2.181590  -87.303032  -48.717758  0
3.284014  -86.395927  -50.248955  0
4.393795  -85.451881  -51.755867  0
5.510639  -84.471024  -53.237942  0
6.634254  -83.453468  -54.694656  0
7.764348  -82.399292  -56.125492  0
8.900620  -81.308632  -57.529861  0
10.042772  -80.181526  -58.907253  0
11.190500  -79.018082  -60.257072  0
12.343493  -77.818344  -61.578754  0
13.501438  -76.582375  -62.871696  0
14.663994  -75.310226  -64.135300  0
15.830831  -74.001938  -65.368927  0
17.001591  -72.657562  -66.571945  0
-21.015469  -97.746239  -2.005417  0
-20.197691  -97.857330  -3.999389  0
-19.364571  -97.924644  -5.981383  0
-18.516466  -97.948570  -7.950885  0
-17.653728  -97.929512  -9.907401  0
-16.776709  -97.867813  -11.850440  0
-15.885739  -97.763832  -13.779531  0
-14.981168  -97.617905  -15.694198  0
-14.063315  -97.430359  -17.593975  0
-13.132518  -97.201485  -19.478403  0
-12.189100  -96.931572  -21.347013  0
-11.233378  -96.620918  -23.199345  0
-10.265695  -96.269768  -25.034916  0
-9.286352  -95.878387  -26.853281  0
-8.295672  -95.447021  -28.653948  0
-7.293977  -94.975899  -30.436441  0
-6.281582  -94.465248  -32.200283  0
-5.258800  -93.915298  -33.944981  0
-4.225940  -93.326248  -35.670059  0
-3.183328  -92.698296  -37.375004  0
-2.131255  -92.031662  -39.059326  0
-1.070050  -91.326500  -40.722523  0
0.000000  -90.583015  -42.364098  0
1.078579  -89.801376  -43.983521  0
2.165383  -88.981728  -45.580292  0
3.260114  -88.124245  -47.153889  0
4.362467  -87.229057  -48.703789  0
5.472155  -86.296326  -50.229465  0
6.588859  -85.326157  -51.730389  0
7.712292  -84.318680  -53.206013  0
8.842152  -83.274002  -54.655800  0
9.978136  -82.192207  -56.079197  0
11.119941  -81.073410  -57.475639  0
12.267255  -79.917656  -58.844563  0
13.419761  -78.725037  -60.185364  0
14.577137  -77.495598  -61.497463  0
15.739055  -76.229416  -62.780239  0
16.905159  -74.926506  -64.033066  0
18.075100  -73.586937  -65.255287  0
-19.121223  -98.134323  -2.008218  0
-18.289114  -98.231705  -4.004777  0
-17.441906  -98.284843  -5.989138  0
-16.579958  -98.294098  -7.960782  0
-15.703622  -98.259888  -9.919203  0
-14.813246  -98.182564  -11.863909  0
-13.909182  -98.062469  -13.794410  0
-12.991762  -97.899956  -15.710237  0
-12.061327  -97.695343  -17.610901  0
-11.118208  -97.448921  -19.495943  0
-10.162736  -97.160995  -21.364880  0
-9.195236  -96.831841  -23.217249  0
-8.216046  -96.461739  -25.052551  0
-7.225473  -96.050919  -26.870335  0
-6.223855  -95.599625  -28.670090  0
-5.211509  -95.108124  -30.451347  0
-4.188754  -94.576622  -32.213612  0
-3.155909  -94.005341  -33.956387  0
-2.113289  -93.394485  -35.679173  0
-1.061219  -92.744278  -37.381466  0
0.000000  -92.054878  -39.062752  0
1.070045  -91.326500  -40.722527  0
2.148614  -90.559311  -42.360279  0
3.235391  -89.753494  -43.975471  0
4.330072  -88.909187  -45.567596  0
5.432349  -88.026558  -47.136116  0
6.541920  -87.105751  -48.680508  0
7.658481  -86.146881  -50.200214  0
8.781720  -85.150093  -51.694706  0
9.911337  -84.115486  -53.163422  0
11.047023  -83.043175  -54.605804  0
12.188465  -81.933243  -56.021297  0
13.335351  -80.785767  -57.409294  0
14.487361  -79.600838  -58.769238  0
15.644161  -78.378502  -60.100502  0
16.805416  -77.118828  -61.402470  0
17.970781  -75.821869  -62.674515  0
19.139881  -74.487663  -63.915985  0
-17.222338  -98.485268  -2.010747  0
-16.376040  -98.568497  -4.009618  0
-15.514893  -98.606972  -5.996066  0
-14.639255  -98.601105  -7.969567  0
-13.749481  -98.551277  -9.929605  0
-12.845941  -98.457863  -11.875678  0
-11.928960  -98.321198  -13.807299  0
-10.998899  -98.141632  -15.723973  0
-10.056083  -97.919487  -17.625219  0
-9.100861  -97.655067  -19.510555  0
-8.133564  -97.348663  -21.379498  0
-7.154520  -97.000557  -23.231562  0
-6.164068  -96.611000  -25.066261  0
-5.162529  -96.180283  -26.883118  0
-4.150238  -95.708618  -28.681618  0
-3.127515  -95.196259  -30.461283  0
-2.094686  -94.643425  -32.221607  0
-1.052075  -94.050362  -33.962090  0
0.000003  -93.417236  -35.682213  0
1.061214  -92.744278  -37.381466  0
2.131258  -92.031662  -39.059326  0
3.209805  -91.279587  -40.715286  0
4.296554  -90.488220  -42.348816  0
5.391180  -89.657730  -43.959377  0
6.493377  -88.788277  -45.546440  0
7.602830  -87.880005  -47.109455  0
8.719233  -86.933060  -48.647900  0
9.842278  -85.947563  -50.161194  0
10.971645  -84.923637  -51.648796  0
12.107025  -83.861389  -53.110142  0
13.248103  -82.760918  -54.544643  0
14.394554  -81.622299  -55.951729  0
15.546060  -80.445641  -57.330791  0
16.702274  -79.230972  -58.681225  0
17.862864  -77.978378  -60.002407  0
19.027472  -76.687927  -61.293701  0
20.195728  -75.359627  -62.554436  0
-15.319272  -98.799126  -2.013006  0
-14.458935  -98.867722  -4.013915  0
-13.584004  -98.891090  -6.002172  0
-12.694851  -98.869629  -7.977244  0
-11.791828  -98.803726  -9.938612  0
-10.875292  -98.693748  -11.885761  0
-9.945604  -98.540054  -13.818194  0
-9.003097  -98.342979  -15.735415  0
-8.048125  -98.102837  -17.636925  0
-7.081028  -97.819939  -19.522236  0
-6.102141  -97.494591  -21.390860  0
-5.111799  -97.127060  -23.242300  0
-4.110347  -96.717613  -25.076052  0
-3.098108  -96.266510  -26.891638  0
-2.075418  -95.774010  -28.688540  0
-1.042605  -95.240334  -30.466249  0
0.000000  -94.665710  -32.224274  0
1.052075  -94.050362  -33.962090  0
2.113292  -93.394478  -35.679169  0
3.183326  -92.698296  -37.375004  0
4.261864  -91.961990  -39.049061  0
5.348571  -91.185730  -40.700806  0
6.443146  -90.369698  -42.329704  0
7.545259  -89.514046  -43.935219  0
8.654598  -88.618950  -45.516800  0
9.770845  -87.684540  -47.073891  0
10.893687  -86.710953  -48.605942  0
12.022811  -85.698311  -50.112377  0
13.157886  -84.646736  -51.592640  0
14.298597  -83.556320  -53.046135  0
15.444616  -82.427155  -54.472271  0
16.595612  -81.259323  -55.870457  0
17.751245  -80.052910  -57.240059  0
18.911167  -78.807968  -58.580463  0
20.075016  -77.524574  -59.891018  0
21.242414  -76.202759  -61.171062  0
-13.412501  -99.075951  -2.014997  0
-12.538278  -99.129448  -4.017670  0
-11.649737  -99.137253  -6.007458  0
-10.747238  -99.099724  -7.983821  0
-9.831146  -99.017281  -9.946228  0
-8.901828  -98.890274  -11.894157  0
-7.959626  -98.719070  -13.827106  0
-7.004901  -98.504013  -15.744565  0
-6.037999  -98.245407  -17.646025  0
-5.059261  -97.943573  -19.530996  0
-4.069033  -97.598808  -21.398973  0
-3.067652  -97.211388  -23.249453  0
-2.055468  -96.781570  -25.081928  0
-1.032802  -96.309624  -26.895897  0
0.000000  -95.795799  -28.690844  0
1.042605  -95.240334  -30.466249  0
2.094686  -94.643425  -32.221607  0
3.155905  -94.005341  -33.956387  0
4.225945  -93.326248  -35.670059  0
5.304463  -92.606346  -37.362087  0
6.391152  -91.845848  -39.031940  0
7.485670  -91.044922  -40.679073  0
8.587711  -90.203720  -42.302948  0
9.696941  -89.322426  -43.903000  0
10.813040  -88.401176  -45.478672  0
11.935688  -87.440117  -47.029404  0
13.064564  -86.439377  -48.554626  0
14.199345  -85.399063  -50.053749  0
15.339694  -84.319298  -51.526199  0
16.485285  -83.200172  -52.971371  0
17.635780  -82.041779  -54.388645  0
18.790833  -80.844185  -55.777420  0
19.950090  -79.607475  -57.137051  0
21.113184  -78.331711  -58.466877  0
22.279736  -77.016937  -59.766243  0
-11.502472  -99.315788  -2.016720  0
-10.614538  -99.353729  -4.020885  0
-9.712557  -99.345467  -6.011927  0
-8.796907  -99.291412  -7.989296  0
-7.867948  -99.191948  -9.952453  0
-6.926043  -99.047455  -11.900872  0
-5.971554  -98.858276  -13.834034  0
-5.004838  -98.624763  -15.751422  0
-4.026239  -98.347221  -17.652525  0
-3.036110  -98.025986  -19.536835  0
-2.034799  -97.661324  -21.403841  0
-1.022646  -97.253540  -23.253029  0
-0.000003  -96.802879  -25.083883  0
1.032802  -96.309624  -26.895897  0
2.075418  -95.774010  -28.688540  0
3.127515  -95.196259  -30.461283  0
4.188750  -94.576622  -32.213612  0
5.258798  -93.915298  -33.944981  0
6.337325  -93.212486  -35.654865  0
7.423988  -92.468407  -37.342709  0
8.518476  -91.683220  -39.007969  0
9.620442  -90.857124  -40.650093  0
10.729577  -89.990265  -42.268528  0
11.845540  -89.082809  -43.862698  0
12.968007  -88.134895  -45.432041  0
14.096651  -87.146667  -46.975979  0
15.231141  -86.118233  -48.493923  0
16.371145  -85.049736  -49.985283  0
17.516317  -83.941246  -51.449444  0
18.666323  -82.792877  -52.885811  0
19.820805  -81.604698  -54.293720  0
20.979406  -80.376793  -55.672573  0
22.141760  -79.109230  -57.021683  0
23.307468  -77.802063  -58.340385  0
-9.589652  -99.518669  -2.018176  0
-8.688184  -99.540573  -4.023562  0
-7.772954  -99.515785  -6.015581  0
-6.844347  -99.444733  -7.993673  0
-5.902724  -99.327789  -9.957294  0
-4.948456  -99.165329  -11.905907  0
-3.981909  -98.957703  -13.838981  0
-3.003436  -98.705254  -15.755995  0
-2.013389  -98.408318  -17.656424  0
-1.012127  -98.067184  -19.539755  0
0.000000  -97.682167  -21.405460  0
1.022650  -97.253540  -23.253029  0
2.055465  -96.781570  -25.081928  0
3.098111  -96.266510  -26.891636  0
4.150241  -95.708618  -28.681618  0
5.211509  -95.108124  -30.451349  0
6.281582  -94.465240  -32.200283  0
7.360124  -93.780212  -33.927879  0
8.446795  -93.053200  -35.633587  0
9.541253  -92.284431  -37.316860  0
10.643180  -91.474068  -38.977135  0
11.752223  -90.622292  -40.613842  0
12.868069  -89.729263  -42.226429  0
13.990374  -88.795135  -43.814312  0
15.118798  -87.820038  -45.376884  0
16.253016  -86.804123  -46.913589  0
17.392683  -85.747467  -48.423801  0
18.537466  -84.650230  -49.906921  0
19.686995  -83.512466  -51.362331  0
20.840925  -82.334297  -52.789383  0
21.998888  -81.115784  -54.187435  0
23.160507  -79.856995  -55.555828  0
24.325396  -78.558014  -56.893875  0
-7.674519  -99.684616  -2.019367  0
-6.759695  -99.690018  -4.025703  0
-5.831418  -99.648239  -6.018422  0
-4.890059  -99.559708  -7.996957  0
-3.935989  -99.424805  -9.960752  0
-2.969591  -99.243896  -11.909261  0
-1.991220  -99.017349  -13.841948  0
-1.001234  -98.745499  -15.758280  0
0.000000  -98.428680  -17.657722  0
1.012127  -98.067184  -19.539755  0
2.034795  -97.661324  -21.403841  0
3.067657  -97.211388  -23.249453  0
4.110344  -96.717613  -25.076054  0
5.162532  -96.180283  -26.883118  0
6.223855  -95.599625  -28.670092  0
7.293977  -94.975899  -30.436441  0
8.372556  -94.309296  -32.181618  0
9.459245  -93.600044  -33.905060  0
10.553713  -92.848343  -35.606228  0
11.655602  -92.054382  -37.284538  0
12.764598  -91.218338  -38.939430  0
13.880338  -90.340378  -40.570328  0
15.002501  -89.420662  -42.176655  0
16.130735  -88.459335  -43.757801  0
17.264704  -87.456528  -45.313187  0
18.404060  -86.412369  -46.842205  0
19.548456  -85.326973  -48.344238  0
20.697544  -84.200439  -49.818642  0
21.850939  -83.032860  -51.264797  0
23.008287  -81.824326  -52.682045  0
24.169201  -80.574913  -54.069706  0
25.333282  -79.284683  -55.427113  0
-5.757518  -99.813667  -2.020293  0
-4.829545  -99.802086  -4.027308  0
-3.888422  -99.742836  -6.020450  0
-2.934533  -99.636345  -7.999144  0
-1.968249  -99.483009  -9.962825  0
-0.989952  -99.283180  -11.910938  0
0.000000  -99.037224  -13.842937  0
1.001234  -98.745499  -15.758280  0
2.013389  -98.408318  -17.656424  0
3.036107  -98.025986  -19.536835  0
4.069029  -97.598808  -21.398973  0
5.111802  -97.127060  -23.242300  0
6.164063  -96.611008  -25.066261  0
7.225473  -96.050919  -26.870335  0
8.295672  -95.447006  -28.653948  0
9.374316  -94.799545  -30.416559  0
10.461056  -94.108742  -32.157616  0
11.555546  -93.374786  -33.876534  0
12.657445  -92.597878  -35.572769  0
13.766397  -91.778221  -37.245731  0
14.882073  -90.915977  -38.894840  0
16.004112  -90.011314  -40.519512  0
17.132187  -89.064384  -42.119156  0
18.265938  -88.075317  -43.693157  0
19.405016  -87.044273  -45.240913  0
20.549063  -85.971336  -46.761795  0
21.697712  -84.856621  -48.255165  0
22.850620  -83.700241  -49.720387  0
24.007378  -82.502281  -51.156796  0
25.167610  -81.262817  -52.563721  0
26.330912  -79.981934  -53.940456  0
-3.839121  -99.905838  -2.020953  0
-2.898201  -99.876785  -4.028376  0
-1.944453  -99.799591  -6.021666  0
-0.978260  -99.674667  -8.000237  0
0.000000  -99.502403  -9.963515  0
0.989952  -99.283180  -11.910938  0
1.991220  -99.017349  -13.841948  0
3.003436  -98.705254  -15.755995  0
4.026237  -98.347221  -17.652525  0
5.059259  -97.943573  -19.530996  0
6.102139  -97.494591  -21.390856  0
7.154524  -97.000557  -23.231562  0
8.216040  -96.461739  -25.052551  0
9.286352  -95.878387  -26.853281  0
10.365095  -95.250748  -28.633186  0
11.451914  -94.579048  -30.391693  0
12.546466  -93.863525  -32.128258  0
13.648392  -93.104355  -33.842281  0
14.757356  -92.301743  -35.533199  0
15.872986  -91.455879  -37.200420  0
16.994953  -90.566910  -38.843349  0
18.122887  -89.635017  -40.461388  0
19.256453  -88.660339  -42.053925  0
20.395283  -87.643013  -43.620346  0
21.539013  -86.583160  -45.160019  0
22.687277  -85.480888  -46.672302  0
23.839708  -84.336319  -48.156555  0
24.995914  -83.149529  -49.612087  0
26.155502  -81.920616  -51.038250  0
27.318058  -80.649643  -52.434330  0
-1.919789  -99.961128  -2.021350  0
-0.966143  -99.914131  -4.028911  0
0.000000  -99.818504  -6.022071  0
0.978260  -99.674667  -8.000237  0
1.968254  -99.483009  -9.962825  0
2.969596  -99.243896  -11.909261  0
3.981914  -98.957703  -13.838981  0
5.004839  -98.624763  -15.751423  0
6.037999  -98.245407  -17.646025  0
7.081029  -97.819939  -19.522238  0
8.133564  -97.348663  -21.379494  0
9.195241  -96.831841  -23.217245  0
10.265696  -96.269760  -25.034920  0
11.344576  -95.662666  -26.831961  0
12.431519  -95.010796  -28.607798  0
13.526167  -94.314369  -30.361847  0
14.628166  -93.573608  -32.093548  0
15.737161  -92.788719  -33.802296  0
16.852800  -91.959877  -35.487514  0
17.974716  -91.087273  -37.148598  0
19.102570  -90.171059  -38.784939  0
20.235977  -89.211395  -40.395920  0
21.374599  -88.208427  -41.980938  0
22.518051  -87.162285  -43.539330  0
23.665972  -86.073074  -45.070469  0
24.817968  -84.940918  -46.573696  0
25.973656  -83.765907  -48.048332  0
27.132639  -82.548134  -49.493690  0
28.294487  -81.287682  -50.909077  0
0.000000  -99.979561  -2.021482  0
0.966143  -99.914131  -4.028911  0
1.944450  -99.799591  -6.021666  0
2.934528  -99.636345  -7.999144  0
3.935994  -99.424805  -9.960752  0
4.948461  -99.165329  -11.905907  0
5.971554  -98.858276  -13.834034  0
7.004901  -98.504013  -15.744565  0
8.048126  -98.102837  -17.636927  0
9.100861  -97.655067  -19.510555  0
10.162733  -97.161003  -21.364883  0
11.233383  -96.620918  -23.199345  0
12.312439  -96.035072  -25.013361  0
13.399548  -95.403717  -26.806366  0
14.494340  -94.727112  -28.577776  0
15.596456  -94.005440  -30.327005  0
16.705534  -93.238945  -32.053471  0
17.821213  -92.427803  -33.756565  0
18.943140  -91.572205  -35.435692  0
20.070932  -90.672333  -37.090240  0
21.204245  -89.728325  -38.719582  0
22.342695  -88.740356  -40.323097  0
23.485920  -87.708549  -41.900143  0
24.633532  -86.633018  -43.450073  0
25.785149  -85.513893  -44.972221  0
26.940365  -84.351265  -46.465908  0
28.098778  -83.145241  -47.930439  0
29.259972  -81.895905  -49.365112  0
1.919796  -99.961128  -2.021350  0
2.898201  -99.876785  -4.028376  0
3.888422  -99.742836  -6.020450  0
4.890059  -99.559708  -7.996957  0
5.902732  -99.327789  -9.957294  0
6.926047  -99.047455  -11.900872  0
7.959632  -98.719070  -13.827106  0
9.003101  -98.342979  -15.735415  0
10.056088  -97.919487  -17.625219  0
11.118208  -97.448921  -19.495943  0
12.189100  -96.931572  -21.347013  0
13.268395  -96.367714  -23.177851  0
14.355710  -95.757607  -24.987867  0
15.450697  -95.101501  -26.776489  0
16.552977  -94.399628  -28.543114  0
17.662186  -93.652206  -30.287155  0
18.777960  -92.859444  -32.008011  0
19.899929  -92.021523  -33.705067  0
21.027733  -91.138641  -35.377712  0
22.160984  -90.210953  -37.025318  0
23.299326  -89.238625  -38.647247  0
24.442360  -88.221779  -40.242867  0
25.589722  -87.160561  -41.811516  0
26.741001  -86.055084  -43.352520  0
27.895800  -84.905457  -44.865200  0
29.053703  -83.711792  -46.348866  0
30.214281  -82.474174  -47.802792  0
3.839121  -99.905838  -2.020953  0
4.829545  -99.802086  -4.027308  0
5.831418  -99.648239  -6.018422  0
6.844347  -99.444733  -7.993674  0
7.867949  -99.191948  -9.952453  0
8.901832  -98.890274  -11.894157  0
9.945606  -98.540047  -13.818194  0
10.998901  -98.141640  -15.723974  0
12.061327  -97.695343  -17.610901  0
13.132519  -97.201485  -19.478405  0
14.212095  -96.660347  -21.325884  0
15.299689  -96.072205  -23.152761  0
16.394917  -95.437325  -24.958435  0
17.497417  -94.755943  -26.742317  0
18.606817  -94.028290  -28.503803  0
19.722734  -93.254578  -30.242283  0
20.844810  -92.435028  -31.957155  0
21.972666  -91.569801  -33.647785  0
23.105925  -90.659081  -35.313545  0
24.244196  -89.703033  -36.953804  0
25.387119  -88.701805  -38.567909  0
26.534269  -87.655533  -40.155197  0
27.685272  -86.564331  -41.714993  0
28.839706  -85.428337  -43.246609  0
29.997154  -84.247650  -44.749352  0
31.157179  -83.022354  -46.222500  0
5.757518  -99.813667  -2.020293  0
6.759695  -99.690018  -4.025703  0
7.772954  -99.515785  -6.015581  0
8.796904  -99.291412  -7.989297  0
9.831152  -99.017273  -9.946227  0
10.875297  -98.693748  -11.885761  0
11.928965  -98.321198  -13.807299  0
12.991762  -97.899956  -15.710237  0
14.063316  -97.430359  -17.593977  0
15.143245  -96.912697  -19.457928  0
16.231165  -96.347267  -21.301491  0
17.326706  -95.734337  -23.124063  0
18.429480  -95.074158  -24.925049  0
19.539131  -94.366982  -26.703842  0
20.655260  -93.613022  -28.459824  0
21.777500  -92.812508  -30.192375  0
22.905466  -91.965607  -31.900881  0
24.038784  -91.072525  -33.584690  0
25.177067  -90.133415  -35.243179  0
26.319908  -89.148453  -36.875675  0
27.466930  -88.117760  -38.481522  0
28.617710  -87.041481  -40.060032  0
29.771843  -85.919731  -41.610527  0
30.928896  -84.752625  -43.132290  0
32.088432  -83.540268  -44.624603  0
7.674519  -99.684616  -2.019367  0
8.688184  -99.540573  -4.023562  0
9.712555  -99.345467  -6.011927  0
10.747236  -99.099724  -7.983820  0
11.791831  -98.803726  -9.938612  0
12.845943  -98.457863  -11.875680  0
13.909182  -98.062469  -13.794410  0
14.981168  -97.617905  -15.694198  0
16.061514  -97.124489  -17.574430  0
17.149834  -96.582520  -19.434505  0
18.245750  -95.992271  -21.273817  0
19.348881  -95.354027  -23.091755  0
20.458832  -94.668037  -24.887699  0
21.575241  -93.934540  -26.661047  0
22.697710  -93.153740  -28.411156  0
23.825861  -92.325859  -30.137407  0
24.959303  -91.451080  -31.839161  0
26.097649  -90.529587  -33.515762  0
27.240498  -89.561531  -35.166557  0
28.387438  -88.547073  -36.790878  0
29.538073  -87.486343  -38.388023  0
30.691961  -86.379478  -39.957317  0
31.848694  -85.226593  -41.498051  0
33.007801  -84.027794  -43.009476  0
9.589652  -99.518669  -2.018176  0
10.614532  -99.353729  -4.020885  0
11.649730  -99.137245  -6.007459  0
12.694844  -98.869629  -7.977245  0
13.749486  -98.551277  -9.929605  0
14.813246  -98.182564  -11.863909  0
15.885739  -97.763832  -13.779531  0
16.966581  -97.295441  -15.675854  0
18.055376  -96.777687  -17.552259  0
19.151741  -96.210884  -19.408138  0
20.255283  -95.595314  -21.242859  0
21.365635  -94.931229  -23.055817  0
22.482384  -94.218895  -24.846378  0
23.605156  -93.458527  -26.613913  0
24.733561  -92.650345  -28.357790  0
25.867201  -91.794556  -30.077360  0
27.005680  -90.891327  -31.771975  0
28.148592  -89.940857  -33.440964  0
29.295546  -88.943291  -35.083660  0
30.446091  -87.898758  -36.699364  0
31.599827  -86.807411  -38.287384  0
32.756287  -85.669373  -39.847008  0
33.915047  -84.484741  -41.377491  0
11.502470  -99.315788  -2.016720  0
12.538278  -99.129463  -4.017670  0
13.584002  -98.891090  -6.002172  0
14.639252  -98.601105  -7.969567  0
15.703622  -98.259888  -9.919203  0
16.776709  -97.867813  -11.850440  0
17.858128  -97.425232  -13.762649  0
18.947479  -96.932487  -15.655197  0
20.044374  -96.389893  -17.527454  0
21.148420  -95.797729  -19.378801  0
22.259226  -95.156296  -21.208603  0
23.376408  -94.465851  -23.016237  0
24.499556  -93.726616  -24.801054  0
25.628290  -92.938835  -26.562424  0
26.762207  -92.102722  -28.299690  0
27.900900  -91.218452  -30.012197  0
29.043962  -90.286232  -31.699276  0
30.190981  -89.306206  -33.360249  0
31.341532  -88.278526  -34.994415  0
32.495171  -87.203346  -36.601082  0
33.651470  -86.080788  -38.179523  0
34.809940  -84.910980  -39.729000  0
13.412496  -99.075951  -2.014997  0
14.458933  -98.867729  -4.013915  0
15.514888  -98.606972  -5.996067  0
16.579950  -98.294098  -7.960782  0
17.653728  -97.929512  -9.907401  0
18.735819  -97.513565  -11.835275  0
19.825815  -97.046616  -13.743761  0
20.923330  -96.528999  -15.632217  0
22.027958  -95.961021  -17.500004  0
23.139318  -95.342987  -19.346493  0
24.257004  -94.675156  -21.171038  0
25.380623  -93.957779  -22.972996  0
26.509762  -93.191124  -24.751717  0
27.644035  -92.375366  -26.506552  0
28.783030  -91.510757  -28.236835  0
29.926317  -90.597450  -29.941887  0
31.073490  -89.635643  -31.621035  0
32.224117  -88.625488  -33.273571  0
33.377758  -87.567108  -34.898792  0
34.533943  -86.460678  -36.495972  0
35.692238  -85.306320  -38.064373  0
15.319268  -98.799126  -2.013006  0
16.376036  -98.568497  -4.009618  0
17.441900  -98.284843  -5.989138  0
18.516464  -97.948570  -7.950887  0
19.599318  -97.560089  -9.894194  0
20.690056  -97.119751  -11.818399  0
21.788280  -96.627907  -13.722851  0
22.893595  -96.084900  -15.606903  0
24.005598  -95.491013  -17.469896  0
25.123884  -94.846550  -19.311193  0
26.248047  -94.151772  -21.130136  0
27.377699  -93.406944  -22.926071  0
28.512411  -92.612274  -24.698338  0
29.651787  -91.768005  -26.446268  0
30.795393  -90.874313  -28.169180  0
31.942812  -89.931396  -29.866388  0
33.093601  -88.939407  -31.537193  0
34.247322  -87.898521  -33.180874  0
35.403511  -86.808868  -34.796715  0
36.561684  -85.670593  -36.383961  0
17.222338  -98.485268  -2.010747  0
18.289114  -98.231705  -4.004777  0
19.364573  -97.924644  -5.981384  0
20.448298  -97.564461  -7.939877  0
21.539886  -97.151558  -9.879576  0
22.638933  -96.686317  -11.799813  0
23.745024  -96.169044  -13.699921  0
24.857767  -95.600098  -15.579247  0
25.976753  -94.979767  -17.437120  0
27.101566  -94.308327  -19.272888  0
28.231808  -93.586060  -21.085886  0
29.367067  -92.813194  -22.875444  0
30.506910  -91.989967  -24.640888  0
31.650934  -91.116592  -26.381542  0
32.798687  -90.193253  -28.096697  0
33.949738  -89.220116  -29.785658  0
35.103626  -88.197372  -31.447710  0
36.259895  -87.125168  -33.082111  0
37.418068  -86.003624  -34.688118  0
19.121223  -98.134323  -2.008218  0
20.197693  -97.857330  -3.999389  0
21.282406  -97.526329  -5.972798  0
22.374952  -97.141708  -7.927743  0
23.474926  -96.703865  -9.863536  0
24.581911  -96.213165  -11.779495  0
25.695505  -95.669930  -13.674951  0
26.815290  -95.074501  -15.549226  0
27.940859  -94.427162  -17.401646  0
29.071798  -93.728210  -19.231552  0
30.207693  -92.977882  -21.038254  0
31.348122  -92.176422  -22.821079  0
32.492641  -91.324059  -24.579332  0
33.640835  -90.420990  -26.312325  0
34.792244  -89.467407  -28.019331  0
35.946404  -88.463478  -29.699638  0
37.102856  -87.409370  -31.352514  0
38.261101  -86.305222  -32.977196  0
21.015469  -97.746239  -2.005417  0
22.101301  -97.445290  -3.993452  0
23.194929  -97.089821  -5.963377  0
24.295946  -96.680229  -7.914483  0
25.403942  -96.216911  -9.846069  0
26.518497  -95.700226  -11.757447  0
27.639198  -95.130478  -13.647928  0
28.765629  -94.508018  -15.516832  0
29.897379  -93.833130  -17.363470  0
31.034019  -93.106079  -19.187164  0
32.175125  -92.327118  -20.987221  0
33.320267  -91.496483  -22.762947  0
34.468990  -90.614403  -24.513636  0
35.620861  -89.681053  -26.238573  0
36.775398  -88.696632  -27.937033  0
37.932133  -87.661293  -29.608276  0
39.090572  -86.575211  -31.251545  0
22.904623  -97.320953  -2.002343  0
23.999462  -96.995506  -3.986959  0
25.101654  -96.615044  -5.953114  0
26.210777  -96.179947  -7.900084  0
27.326427  -95.690613  -9.827164  0
28.448162  -95.147377  -11.733644  0
29.575577  -94.550575  -13.618833  0
30.708246  -93.900528  -15.482037  0
31.845751  -93.197517  -17.322554  0
32.987656  -92.441795  -19.139694  0
34.133514  -91.633629  -20.932747  0
35.282894  -90.773239  -22.701006  0
36.435326  -89.860840  -24.443747  0
37.590351  -88.896606  -26.160244  0
38.747478  -87.880737  -27.849743  0
39.906212  -86.813400  -29.511494  0
24.788198  -96.858398  -1.998994  0
25.891703  -96.507927  -3.979911  0
27.002094  -96.101921  -5.942004  0
28.118952  -95.640778  -7.884542  0
29.241865  -95.124863  -9.806807  0
30.370388  -94.554535  -11.708079  0
31.504103  -93.930115  -13.587656  0
32.642593  -93.251907  -15.444828  0
33.785408  -92.520195  -17.278881  0
34.932117  -91.735229  -19.089117  0
36.082256  -90.897263  -20.874802  0
37.235378  -90.006523  -22.635220  0
38.390987  -89.063194  -24.369621  0
39.548626  -88.067482  -26.077274  0
40.707771  -87.019562  -27.757399  0
26.665741  -96.358482  -1.995366  0
27.777544  -95.982437  -3.972298  0
28.895761  -95.550346  -5.930037  0
30.019968  -95.062599  -7.867844  0
31.149740  -94.519562  -9.784985  0
32.284641  -93.921577  -11.680732  0
33.424240  -93.268959  -13.554367  0
34.568096  -92.562012  -15.405170  0
35.715771  -91.801025  -17.232420  0
36.866798  -90.986221  -19.035385  0
38.020725  -90.117867  -20.813337  0
39.177063  -89.196159  -22.565527  0
40.335316  -88.221306  -24.291203  0
41.494995  -87.193497  -25.989601  0
28.536770  -95.821121  -1.991459  0
29.656498  -95.418953  -3.964117  0
30.782154  -94.960220  -5.917208  0
31.913309  -94.445320  -7.849978  0
33.049534  -93.874588  -9.761682  0
34.190384  -93.248367  -11.651582  0
35.335423  -92.566978  -13.518948  0
36.484196  -91.830711  -15.363044  0
37.636242  -91.039841  -17.183130  0
38.791096  -90.194611  -18.978468  0
39.948280  -89.295265  -20.748308  0
41.107292  -88.341980  -22.491886  0
42.267612  -87.334991  -24.208427  0
30.400814  -95.246208  -1.987268  0
31.528078  -94.817368  -3.955362  0
32.660774  -94.331451  -5.903504  0
33.798462  -93.788803  -7.830929  0
34.940716  -93.189804  -9.736881  0
36.087070  -92.534775  -11.620609  0
37.237083  -91.824028  -13.481369  0
38.390285  -91.057846  -15.318410  0
39.546211  -90.236504  -17.130976  0
40.704365  -89.360222  -18.918316  0
41.864262  -88.429268  -20.679661  0
43.025375  -87.443810  -22.414230  0
32.257389  -94.633659  -1.982790  0
33.391792  -94.177582  -3.946026  0
34.531105  -93.663887  -5.888916  0
35.674904  -93.092934  -7.810685  0
36.822735  -92.465073  -9.710562  0
37.974136  -91.780655  -11.587788  0
39.128639  -91.039948  -13.441599  0
40.285778  -90.243263  -15.271233  0
41.445053  -89.390831  -17.075914  0
42.605972  -88.482895  -18.854883  0
43.767994  -87.519714  -20.607342  0
34.105980  -93.983345  -1.978022  0
35.247101  -93.499458  -3.936100  0
36.392616  -92.957413  -5.873431  0
37.542068  -92.357567  -7.789227  0
38.695019  -91.700272  -9.682706  0
39.850983  -90.985855  -11.553092  0
41.009483  -90.214584  -13.399608  0
42.170021  -89.386772  -15.221475  0
43.332104  -88.502655  -17.017906  0
44.495190  -87.562454  -18.788111  0
35.946098  -93.295143  -1.972959  0
37.093506  -92.782867  -3.925576  0
38.244766  -92.211891  -5.857037  0
39.399418  -91.582565  -7.766539  0
40.557003  -90.895233  -9.653288  0
41.717022  -90.150215  -11.516490  0
42.878983  -89.347794  -13.355357  0
44.042381  -88.488228  -15.169093  0
45.206684  -87.571793  -16.956890  0
37.777222  -92.568947  -1.967597  0
38.930462  -92.027687  -3.914445  0
40.087002  -91.427185  -5.839717  0
41.246372  -90.767769  -7.742598  0
42.408085  -90.049805  -9.622279  0
43.571625  -89.273567  -11.477949  0
44.736500  -88.439362  -13.308807  0
45.902168  -87.547447  -15.114037  0
39.598812  -91.804596  -1.961931  0
40.757423  -91.233765  -3.902698  0
41.918755  -90.603134  -5.821458  0
43.082317  -89.913048  -7.717385  0
44.247631  -89.163803  -9.589652  0
45.414150  -88.355751  -11.437437  0
46.581352  -87.489151  -13.259916  0
41.410316  -91.001968  -1.955956  0
42.573807  -90.400978  -3.890321  0
43.739422  -89.739601  -5.802241  0
44.906658  -89.018211  -7.690873  0
46.075008  -88.237114  -9.555378  0
47.243916  -87.396606  -11.394911  0
43.211166  -90.160934  -1.949665  0
44.379021  -89.529152  -3.877304  0
45.548382  -88.836433  -5.782048  0
46.718735  -88.083122  -7.663039  0
47.889534  -87.269539  -9.519420  0
45.000755  -89.281334  -1.943052  0
46.172440  -88.618156  -3.863633  0
47.344990  -87.893486  -5.760859  0
48.517860  -87.107635  -7.633853  0
46.778469  -88.363022  -1.936111  0
47.953426  -87.667847  -3.849295  0
49.128567  -86.910591  -5.738650  0
48.543652  -87.405907  -1.928835  0
49.721283  -86.678093  -3.834274  0
50.295624  -86.409836  -1.921215  0
0.000000  50.851215  -86.105476  0
0.000000  49.115295  -87.107330  0
0.000000  47.366081  -88.070732  0
0.000000  45.604248  -88.995796  0
0.000000  43.830452  -89.882645  0
0.000000  42.045319  -90.731422  0
0.000000  40.249443  -91.542244  0
0.000000  38.443398  -92.315247  0
0.000000  36.627747  -93.050568  0
0.000000  34.803005  -93.748337  0
0.000000  32.969707  -94.408669  0
0.000000  31.128349  -95.031708  0
0.000000  29.279421  -95.617546  0
0.000000  27.423401  -96.166298  0
0.000000  25.560774  -96.678055  0
0.000000  23.692001  -97.152916  0
0.000000  21.817543  -97.590958  0
0.000000  19.937860  -97.992256  0
0.000000  18.053410  -98.356873  0
0.000000  16.164646  -98.684868  0
0.000000  14.272018  -98.976303  0
0.000000  12.375987  -99.231216  0
0.000000  10.476993  -99.449646  0
0.000000  8.575498  -99.631622  0
0.000000  6.671961  -99.777176  0
0.000000  4.766823  -99.886330  0
0.000000  2.860549  -99.959076  0
0.000000  0.953592  -99.995445  0
0.000000  -0.953598  -99.995445  0
0.000000  -2.860553  -99.959076  0
0.000000  -4.766823  -99.886330  0
0.000000  -6.671961  -99.777176  0
0.000000  -8.575498  -99.631622  0
0.000000  -10.476993  -99.449646  0
0.000000  -12.375981  -99.231216  0
0.000000  -14.272017  -98.976303  0
0.000000  -16.164646  -98.684868  0
0.000000  -18.053415  -98.356873  0
0.000000  -19.937860  -97.992256  0
0.000000  -21.817543  -97.590958  0
0.000000  -23.692001  -97.152916  0
0.000000  -25.560774  -96.678055  0
0.000000  -27.423401  -96.166298  0
0.000000  -29.279413  -95.617546  0
0.000000  -31.128353  -95.031708  0
0.000000  -32.969707  -94.408669  0
0.000000  -34.803009  -93.748337  0
0.000000  -36.627747  -93.050568  0
0.000000  -38.443398  -92.315247  0
0.000000  -40.249443  -91.542244  0
0.000000  -42.045319  -90.731422  0
0.000000  -43.830452  -89.882652  0
0.000000  -45.604252  -88.995796  0
0.000000  -47.366089  -88.070732  0
0.000000  -49.115303  -87.107330  0
0.000000  -50.851215  -86.105476  0
84.192238  -1.182449  -53.946903  0
83.288780  -2.359996  -55.293850  0
82.355324  -3.532312  -56.613796  0
81.392509  -4.699089  -57.906624  0
80.400909  -5.860040  -59.172241  0
79.381088  -7.014891  -60.410545  0
78.333603  -8.163385  -61.621464  0
77.258987  -9.305279  -62.804935  0
76.157753  -10.440333  -63.960892  0
75.030396  -11.568326  -65.089279  0
73.877388  -12.689031  -66.190018  0
72.699211  -13.802239  -67.263077  0
71.496323  -14.907737  -68.308380  0
70.269142  -16.005320  -69.325874  0
69.018135  -17.094776  -70.315475  0
67.743683  -18.175901  -71.277130  0
66.446236  -19.248489  -72.210747  0
65.126198  -20.312340  -73.116257  0
63.783947  -21.367239  -73.993568  0
62.419907  -22.412981  -74.842583  0
61.034462  -23.449350  -75.663216  0
59.627991  -24.476139  -76.455353  0
58.200886  -25.493137  -77.218887  0
56.753532  -26.500116  -77.953697  0
55.286316  -27.496862  -78.659676  0
53.799599  -28.483158  -79.336700  0
52.293774  -29.458778  -79.984634  0
50.769199  -30.423498  -80.603340  0
49.226250  -31.377094  -81.192696  0
47.665302  -32.319328  -81.752548  0
46.086720  -33.249981  -82.282761  0
44.490852  -34.168823  -82.783180  0
42.878090  -35.075611  -83.253647  0
41.248760  -35.970127  -83.694023  0
