#!ascii version in FreeSurfer format (SUMA)
32492 64980
40.993282  -11.574014  90.474274  0
41.353848  -13.164578  90.091911  0
41.684010  -14.773701  89.689362  0
41.985142  -16.414179  89.262665  0
42.260773  -18.091469  88.807236  0
42.509026  -19.809258  88.320862  0
42.731602  -21.567492  87.800079  0
42.939182  -23.373032  87.234901  0
43.162842  -25.220406  86.607742  0
43.425896  -27.083298  85.910919  0
43.724155  -28.940815  85.150612  0
44.045212  -30.786980  84.333748  0
44.371887  -32.616470  83.470360  0
44.668655  -34.437542  82.575821  0
44.921669  -36.270790  81.648476  0
94.621819  24.286602  21.374580  0
93.966377  25.343582  22.978737  0
93.267143  26.406586  24.575014  0
92.521088  27.482536  26.164082  0
91.728432  28.582483  27.729708  0
90.902061  29.674992  29.261059  0
90.053055  30.707657  30.781290  0
89.178474  31.793037  32.193192  0
88.287018  32.884171  33.526604  0
87.377403  33.978790  34.794109  0
86.447906  35.078060  36.004021  0
85.494919  36.175095  37.175014  0
84.515327  37.264137  38.321579  0
83.503845  38.336029  39.464626  0
82.456421  39.387543  40.614773  0
81.368561  40.414467  41.783123  0
80.235062  41.415344  42.977951  0
79.050735  42.350014  44.243153  0
77.839981  43.201687  45.547241  0
76.598564  44.028385  46.841869  0
75.336990  44.836025  48.104763  0
74.035034  45.685783  49.311493  0
72.693275  46.543510  50.491470  0
71.324493  47.371056  51.660423  0
69.925430  48.166801  52.824177  0
68.495491  48.900520  54.010242  0
67.036186  49.567558  55.219627  0
65.545418  50.176788  56.445450  0
64.024750  50.745785  57.668854  0
62.476997  51.286133  58.875774  0
60.904579  51.805508  60.056812  0
59.310085  52.308701  61.205494  0
57.691711  52.797962  62.322086  0
56.051327  53.272377  63.405853  0
54.390125  53.729584  64.458092  0
52.710716  54.165245  65.480576  0
51.016762  54.576969  66.472885  0
49.309814  54.966522  67.433113  0
47.592564  55.337662  68.357079  0
45.865219  55.694180  69.242630  0
44.129780  56.029129  70.094940  0
42.389385  56.346542  70.909851  0
40.649426  56.634148  71.695168  0
38.915520  56.896816  72.445389  0
37.190197  57.132931  73.162270  0
35.471836  57.350361  73.842308  0
33.753910  57.557178  74.483856  0
32.031071  57.756859  75.087662  0
30.301750  57.949944  75.654533  0
28.560072  58.137596  76.186241  0
26.801697  58.315544  76.687462  0
25.028536  58.477764  77.161674  0
23.234020  58.619331  77.614136  0
21.420921  58.733486  78.048203  0
19.588882  58.816494  78.465889  0
94.537010  23.101925  23.001160  0
93.859520  24.153700  24.637108  0
93.136124  25.209427  26.270660  0
92.364883  26.280293  27.894003  0
91.550972  27.383957  29.470972  0
90.711716  28.400928  31.060781  0
89.843384  29.436871  32.582745  0
88.957329  30.515512  33.991146  0
88.054642  31.613937  35.312019  0
87.134415  32.729523  36.556412  0
86.193703  33.850975  37.745945  0
85.230988  34.970619  38.893883  0
84.240807  36.073051  40.027760  0
83.219978  37.152340  41.159927  0
82.158691  38.207714  42.309818  0
81.051407  39.235992  43.487991  0
79.899109  40.268757  44.660488  0
78.689972  41.107975  46.021992  0
77.477386  41.910603  47.336632  0
76.217110  42.728470  48.633636  0
74.929703  43.548744  49.890343  0
73.605972  44.382141  51.111500  0
72.251984  45.207726  52.305943  0
70.868515  46.007492  53.487980  0
69.455170  46.763962  54.672768  0
68.011353  47.464703  55.870907  0
66.535797  48.108475  57.083820  0
65.027229  48.703106  58.304947  0
63.488914  49.256546  59.522690  0
61.922600  49.777000  60.727608  0
60.331398  50.274323  61.908119  0
58.716553  50.756145  63.056957  0
57.078899  51.226860  64.170151  0
55.418648  51.686478  65.247856  0
53.738274  52.133823  66.289238  0
52.041580  52.567310  67.293022  0
50.332851  52.989799  68.254562  0
48.611961  53.403969  69.172920  0
46.879623  53.813858  70.045479  0
45.134121  54.211254  70.880539  0
43.377392  54.587341  71.684196  0
41.615616  54.927521  72.464523  0
39.857517  55.223976  73.223572  0
38.116703  55.473347  73.958275  0
36.389557  55.692585  74.660126  0
34.669174  55.898518  75.321999  0
32.948765  56.096275  75.944626  0
31.223753  56.290157  76.527748  0
29.488075  56.481724  77.073135  0
27.739355  56.666313  77.585159  0
25.974333  56.842197  78.065994  0
24.187263  56.999683  78.523964  0
22.375336  57.130058  78.965179  0
20.541979  57.229065  79.390564  0
94.414886  21.901064  24.620550  0
93.713470  22.944929  26.292873  0
92.964195  23.988503  27.967989  0
92.168442  25.035677  29.634333  0
91.335899  26.068104  31.276312  0
90.472595  27.087778  32.877995  0
89.586761  28.130129  34.393414  0
88.685738  29.210428  35.799305  0
87.769241  30.327282  37.105488  0
86.835403  31.467846  38.332603  0
85.882309  32.617878  39.500675  0
84.912086  33.751888  40.629398  0
83.917213  34.854595  41.749962  0
82.894554  35.924606  42.870922  0
81.834572  36.976410  43.998283  0
80.695114  37.989170  45.223022  0
79.528862  38.925026  46.475815  0
78.323105  39.757122  47.800232  0
77.076324  40.569012  49.126324  0
75.798813  41.396072  50.407402  0
74.490967  42.225018  51.654064  0
73.153023  43.048939  52.871765  0
71.784683  43.853958  54.072071  0
70.385887  44.625801  55.266304  0
68.955734  45.350368  56.466377  0
67.493690  46.024094  57.674812  0
65.997200  46.644218  58.895554  0
64.468475  47.214882  60.121300  0
62.908531  47.739822  61.346764  0
61.321419  48.230194  62.558235  0
59.709560  48.698204  63.743652  0
58.074600  49.158016  64.890915  0
56.415165  49.614613  65.997871  0
54.732548  50.067921  67.063797  0
53.028740  50.513489  68.090675  0
51.312786  50.952667  69.071144  0
49.588940  51.394909  69.996429  0
47.856476  51.846783  70.863731  0
46.109028  52.306622  71.679665  0
44.342476  52.753872  72.462227  0
42.560696  53.166145  73.225327  0
40.776016  53.516716  73.981621  0
39.015499  53.785984  74.731911  0
37.282310  54.005577  75.454811  0
35.560360  54.208256  76.137558  0
33.838593  54.404842  76.779305  0
32.115231  54.598339  77.379799  0
30.385681  54.791058  77.940048  0
28.647200  54.984177  78.460678  0
26.894575  55.173576  78.946548  0
25.117817  55.351494  79.405968  0
23.313969  55.503281  79.848885  0
21.480743  55.619629  80.280975  0
94.255501  20.686464  26.229202  0
93.528763  21.719784  27.939642  0
92.752136  22.745991  29.659077  0
91.929176  23.759779  31.376743  0
91.068123  24.760099  33.068634  0
90.179077  25.760286  34.700775  0
89.274208  26.795757  36.222954  0
88.355042  27.885658  37.626816  0
87.421402  29.033037  38.917618  0
86.474403  30.211475  40.117897  0
85.514282  31.398863  41.248260  0
84.553596  32.502346  42.359024  0
83.542336  33.610828  43.485527  0
82.500443  34.656994  44.638218  0
81.414635  35.674305  45.814861  0
80.277710  36.633919  47.047272  0
79.102615  37.529732  48.314552  0
77.886337  38.382645  49.603344  0
76.630692  39.223789  50.884502  0
75.341461  40.059452  52.143108  0
74.020477  40.887699  53.377586  0
72.667656  41.699619  54.594444  0
71.283447  42.484722  55.800705  0
69.866814  43.230190  57.006828  0
68.417526  43.927391  58.218777  0
66.934174  44.572086  59.440266  0
65.416107  45.163265  60.671337  0
63.863010  45.697392  61.913364  0
62.279945  46.179874  63.155575  0
60.670067  46.628773  64.380898  0
59.035992  47.066967  65.570221  0
57.378189  47.511845  66.711075  0
55.697132  47.963333  67.803749  0
53.985001  48.421547  68.854729  0
52.252274  48.865261  69.870491  0
50.516655  49.308731  70.828796  0
48.782978  49.785172  71.705353  0
47.040623  50.291588  72.511635  0
45.277550  50.815262  73.264954  0
43.477379  51.330048  73.992867  0
41.665066  51.782978  74.716431  0
39.880688  52.077953  75.481239  0
38.150520  52.277534  76.233826  0
36.425991  52.479710  76.935211  0
34.703014  52.677029  77.594017  0
32.977417  52.872189  78.211388  0
31.249126  53.065186  78.788185  0
29.516399  53.259762  79.323265  0
27.777035  53.461552  79.814156  0
26.020632  53.660374  80.271355  0
24.230469  53.843201  80.708084  0
22.402555  53.985161  81.140167  0
94.060043  19.461853  27.819866  0
93.307106  20.484024  29.566687  0
92.501328  21.490576  31.331470  0
91.646477  22.476732  33.101673  0
90.751015  23.441782  34.853054  0
89.830902  24.409605  36.531895  0
88.902649  25.423828  38.078171  0
87.971977  26.543777  39.450699  0
87.010895  27.789328  40.704514  0
86.076317  28.985247  41.841637  0
85.115898  30.127693  42.983784  0
84.136513  31.225979  44.113323  0
83.119888  32.293888  45.256916  0
82.065575  33.326077  46.417816  0
80.967476  34.317032  47.608929  0
79.825928  35.258831  48.832741  0
78.640747  36.156429  50.083397  0
77.413773  37.025314  51.344280  0
76.147644  37.875969  52.601784  0
74.846336  38.713924  53.844757  0
73.511284  39.535439  55.073048  0
72.142723  40.333775  56.290455  0
70.740486  41.097363  57.504700  0
69.304390  41.816448  58.722107  0
67.834373  42.483059  59.947384  0
66.330215  43.096317  61.180149  0
64.786537  43.648731  62.429913  0
63.209438  44.127308  63.697315  0
61.600708  44.550240  64.966377  0
59.965904  44.957031  66.203896  0
58.295948  45.377056  67.398109  0
56.627697  45.818085  68.512825  0
54.927834  46.291275  69.570473  0
53.174973  46.762947  70.609123  0
51.402981  47.179672  71.636665  0
49.643353  47.626297  72.575989  0
47.907738  48.162315  73.384193  0
46.174953  48.772652  74.088478  0
44.378983  49.393391  74.771645  0
42.489296  49.996021  75.465607  0
40.718086  50.347717  76.204628  0
39.008099  50.501907  76.993027  0
37.279659  50.707424  77.710899  0
35.545937  50.912743  78.386093  0
33.810719  51.110859  79.022255  0
32.073452  51.303314  79.619492  0
30.338638  51.494946  80.173805  0
28.607565  51.692207  80.681618  0
26.874128  51.904823  81.139824  0
25.119823  52.133591  81.554176  0
23.304132  52.323349  81.970634  0
93.831062  18.231741  29.382580  0
93.052094  19.242535  31.161371  0
92.217484  20.231293  32.964081  0
91.328987  21.190969  34.784477  0
90.391365  22.109144  36.614025  0
89.438873  23.010128  38.356503  0
88.505730  24.063768  39.845600  0
87.588814  25.265017  41.108131  0
86.639870  26.530403  42.304497  0
85.691414  27.693781  43.474564  0
84.721024  28.822353  44.627579  0
83.722099  29.912081  45.780754  0
82.689369  30.967581  46.941216  0
81.617882  31.985622  48.119022  0
80.504265  32.962574  49.320705  0
79.347588  33.897964  50.545906  0
78.147621  34.797977  51.788521  0
76.906273  35.670025  53.038429  0
75.626259  36.520996  54.285221  0
74.310043  37.352318  55.523163  0
72.958313  38.162388  56.751366  0
71.571335  38.943092  57.973949  0
70.150017  39.683174  59.196461  0
68.694153  40.370754  60.426117  0
67.205406  40.999783  61.664017  0
65.676636  41.589146  62.904072  0
64.108604  42.086948  64.177689  0
62.536728  42.472080  65.462051  0
60.863953  42.876999  66.761818  0
59.172230  43.288532  68.005516  0
57.508266  43.705288  69.156685  0
55.818073  44.199959  70.218994  0
54.110676  44.723568  71.216835  0
52.275700  45.141014  72.315559  0
50.434525  45.536743  73.367325  0
48.712013  46.023628  74.222404  0
46.961819  46.635799  74.964592  0
45.250210  47.356667  75.562988  0
43.423645  47.945847  76.259964  0
41.615055  48.415394  76.968422  0
39.880608  48.650501  77.734589  0
38.126545  48.883797  78.464905  0
36.371243  49.109261  79.154358  0
34.617134  49.319317  79.807640  0
32.862457  49.515011  80.425888  0
31.112862  49.701996  81.004333  0
29.368782  49.882256  81.542839  0
27.641573  50.069798  82.030228  0
25.936041  50.328381  82.428001  0
24.205795  50.641953  82.761543  0
93.571922  16.999050  30.908367  0
92.769859  17.999300  32.707470  0
91.911301  18.972467  34.530537  0
90.995171  19.909658  36.379715  0
90.013573  20.759161  38.296387  0
89.054070  21.678049  39.992924  0
88.145752  22.873333  41.317513  0
87.211655  24.089966  42.588741  0
86.266090  25.277906  43.808552  0
85.301765  26.424402  45.003994  0
84.314186  27.534241  46.184246  0
83.295876  28.608973  47.363731  0
82.242676  29.648695  48.549942  0
81.150398  30.652273  49.749889  0
80.016754  31.618118  50.966774  0
78.840233  32.547089  52.200626  0
77.620811  33.443428  53.446667  0
76.359886  34.309204  54.699600  0
75.061546  35.147987  55.949829  0
73.726982  35.964622  57.191586  0
72.355164  36.759212  58.425095  0
70.943825  37.520969  59.658615  0
69.507545  38.226254  60.888870  0
68.038719  38.875469  62.124313  0
66.530159  39.475048  63.367653  0
64.956818  40.090557  64.601547  0
63.417362  40.470375  65.881607  0
61.795021  40.864216  67.167625  0
60.078205  41.316990  68.436226  0
58.382080  41.742371  69.635521  0
56.676506  42.210335  70.753517  0
54.950478  42.719856  71.801529  0
53.193508  43.204609  72.827278  0
51.388557  43.618942  73.868835  0
49.590549  44.082150  74.816727  0
47.812099  44.624664  75.648148  0
46.036823  45.257805  76.369766  0
44.269066  45.856197  77.054909  0
42.497742  46.348797  77.754295  0
40.729588  46.718998  78.475700  0
38.954872  47.016289  79.195877  0
37.176502  47.274178  79.894051  0
35.397484  47.503712  80.563110  0
33.618366  47.709244  81.201187  0
31.841553  47.894623  81.805984  0
30.068375  48.062370  82.376587  0
28.295279  48.198849  82.923149  0
26.575661  48.355667  83.399422  0
24.950111  48.756947  83.667511  0
93.287529  15.767760  32.385410  0
92.467735  16.758385  34.188805  0
91.595787  17.717842  36.004047  0
90.673607  18.637987  37.827526  0
89.711624  19.511189  39.637592  0
88.745491  20.561975  41.248539  0
87.796219  21.726625  42.658840  0
86.845917  22.899576  43.970398  0
85.883568  24.050611  45.228096  0
84.900589  25.171587  46.457298  0
83.891144  26.260382  47.672504  0
82.848969  27.315357  48.886795  0
81.772171  28.338892  50.102085  0
80.655930  29.327991  51.327278  0
79.498756  30.282148  52.563656  0
78.298279  31.202015  53.812767  0
77.053230  32.086693  55.074894  0
75.765404  32.928509  56.349953  0
74.446228  33.736607  57.615971  0
73.090942  34.535728  58.864235  0
71.690369  35.332428  60.100842  0
70.236366  36.095421  61.351227  0
68.815872  36.759777  62.554749  0
67.351601  37.357735  63.782150  0
65.789780  37.954647  65.047279  0
64.213966  38.458290  66.313835  0
62.603752  38.900749  67.583298  0
60.943977  39.357815  68.824379  0
59.254646  39.806957  70.030655  0
57.542068  40.275227  71.181572  0
55.810570  40.765701  72.272667  0
54.063244  41.256996  73.314568  0
52.296787  41.723316  74.325027  0
50.503357  42.187927  75.296684  0
48.700298  42.695835  76.192818  0
46.899849  43.253162  77.003685  0
45.109905  43.813690  77.752541  0
43.327751  44.327667  78.471420  0
41.544529  44.758728  79.187813  0
39.755432  45.115940  79.900291  0
37.958408  45.413990  80.602287  0
36.155457  45.670998  81.283104  0
34.347790  45.893253  81.939240  0
32.538033  46.086155  82.567200  0
30.724993  46.253151  83.166222  0
28.902582  46.387405  83.742752  0
27.058998  46.408058  84.345146  0
25.266298  46.560947  84.815636  0
92.979172  14.541401  33.814522  0
92.147240  15.527429  35.605976  0
91.267570  16.481819  37.397598  0
90.345573  17.414757  39.171474  0
89.385612  18.380213  40.894760  0
88.411957  19.448433  42.486275  0
87.443863  20.577944  43.933125  0
86.471619  21.715822  45.288883  0
85.485443  22.835762  46.591480  0
84.477257  23.930182  47.863750  0
83.441032  24.994516  49.120953  0
82.372650  26.030191  50.370384  0
81.268219  27.035767  51.619209  0
80.125259  28.009583  52.871601  0
78.940819  28.949678  54.131897  0
77.712952  29.856369  55.401199  0
76.435997  30.720537  56.690277  0
75.115799  31.500235  58.011650  0
73.775917  32.275818  59.290684  0
72.424004  33.098854  60.491570  0
70.985535  33.892254  61.744381  0
69.511307  34.599926  63.016064  0
68.045113  35.238132  64.250580  0
66.531517  35.846077  65.487541  0
64.977081  36.399235  66.731361  0
63.384598  36.912552  67.969528  0
61.750084  37.400391  69.196373  0
60.080284  37.880985  70.394531  0
58.380985  38.362701  71.553917  0
56.656368  38.853458  72.666809  0
54.912872  39.346878  73.731949  0
53.151768  39.832176  74.754845  0
51.370598  40.312279  75.736267  0
49.569927  40.805000  76.666641  0
47.759773  41.322048  77.533813  0
45.951916  41.847889  78.340134  0
44.149033  42.353378  79.101540  0
42.346260  42.810284  79.837791  0
40.538620  43.204338  80.560562  0
38.720798  43.542084  81.269836  0
36.894432  43.828304  81.962677  0
35.056377  44.073418  82.635246  0
33.213516  44.280712  83.283134  0
31.358852  44.458134  83.905289  0
29.496029  44.606094  84.500183  0
27.613050  44.702854  85.083344  0
25.664249  44.760532  85.661194  0
92.647705  13.327509  35.196285  0
91.804871  14.316210  36.971756  0
90.917679  15.285036  38.734264  0
89.989441  16.255539  40.467976  0
89.028038  17.265997  42.141361  0
88.050705  18.335596  43.713593  0
87.066475  19.437002  45.184441  0
86.071007  20.541567  46.581387  0
85.058212  21.630014  47.929562  0
84.020744  22.694132  49.249260  0
82.954773  23.733149  50.549412  0
81.856506  24.748100  51.836700  0
80.722092  25.736538  53.118496  0
79.548088  26.694000  54.401596  0
78.331985  27.614912  55.691261  0
77.074158  28.513622  56.978489  0
75.764755  29.376528  58.281399  0
74.417915  30.027628  59.668373  0
73.052032  30.861050  60.917938  0
71.650398  31.699005  62.140106  0
70.206398  32.431175  63.397789  0
68.736160  33.107079  64.647202  0
67.236618  33.748524  65.880768  0
65.701691  34.347595  67.108353  0
64.128380  34.908752  68.329567  0
62.516338  35.440315  69.539131  0
60.866703  35.954277  70.728600  0
59.183537  36.458664  71.889320  0
57.472027  36.960972  73.012688  0
55.737316  37.461552  74.094437  0
53.981445  37.957253  75.134880  0
52.205555  38.447273  76.134003  0
50.410526  38.938053  77.088318  0
48.600323  39.435192  77.992783  0
46.781944  39.937092  78.844643  0
44.962086  40.428944  79.648674  0
43.139267  40.888523  80.418480  0
41.311012  41.304607  81.162369  0
39.472519  41.668011  81.888321  0
37.621220  41.983578  82.595543  0
35.755508  42.253399  83.283821  0
33.876366  42.481483  83.950668  0
31.980000  42.675034  84.593857  0
30.069616  42.840107  85.208824  0
28.143206  42.979813  85.794502  0
26.186111  43.125637  86.339256  0
92.290642  12.129235  36.542015  0
91.438545  13.131431  38.295654  0
90.542862  14.123342  40.031509  0
89.608231  15.125643  41.732258  0
88.642792  16.157404  43.375046  0
87.656578  17.219931  44.942162  0
86.654190  18.296860  46.435722  0
85.634003  19.368839  47.871338  0
84.591171  20.422951  49.266991  0
83.521683  21.457108  50.633198  0
82.421806  22.469915  51.978344  0
81.289833  23.464411  53.304642  0
80.121864  24.438576  54.619072  0
78.913635  25.380451  55.932735  0
77.667831  26.265856  57.252174  0
76.389832  27.132601  58.552670  0
75.060921  27.926662  59.882885  0
73.674278  28.703482  61.222637  0
72.271851  29.509037  62.497974  0
70.852829  30.275879  63.743614  0
69.402161  30.989695  64.984459  0
67.917633  31.663557  66.216423  0
66.398064  32.298824  67.439476  0
64.842270  32.901009  68.651321  0
63.248711  33.471565  69.851662  0
61.617775  34.019497  71.034668  0
59.952633  34.551361  72.193390  0
58.255630  35.071518  73.323051  0
56.531887  35.585205  74.416656  0
54.783939  36.090973  75.472916  0
53.014523  36.589123  76.489853  0
51.224182  37.082359  77.466003  0
49.415363  37.573643  78.398621  0
47.593006  38.061867  79.285561  0
45.761414  38.540562  80.128128  0
43.922184  38.997238  80.932419  0
42.075272  39.421238  81.704567  0
40.215290  39.803326  82.452568  0
38.340614  40.140324  83.179031  0
36.448593  40.433838  83.884468  0
34.535805  40.685989  84.569077  0
32.600666  40.900822  85.230980  0
30.643448  41.085209  85.866089  0
28.664255  41.251736  86.467651  0
26.660738  41.430702  87.021271  0
91.908882  10.951202  37.852722  0
91.046486  11.969529  39.588745  0
90.142525  12.985089  41.300270  0
89.200356  14.008324  42.977489  0
88.226257  15.047477  44.606056  0
87.226105  16.098839  46.178288  0
86.202217  17.150297  47.697441  0
85.152504  18.188681  49.175426  0
84.076241  19.208847  50.618244  0
82.969315  20.209658  52.035206  0
81.830994  21.196600  53.426521  0
80.660194  22.176704  54.791672  0
79.454071  23.153595  56.133430  0
78.219200  24.068295  57.467152  0
76.952538  24.907906  58.803932  0
75.635529  25.764767  60.128559  0
74.273994  26.566881  61.461979  0
72.885178  27.358192  62.763683  0
71.476936  28.136591  64.026413  0
70.041161  28.877556  65.271149  0
68.573639  29.584122  66.501389  0
67.070213  30.252701  67.722664  0
65.530121  30.889065  68.932358  0
63.953156  31.494629  70.129036  0
62.339287  32.073914  71.309723  0
60.690681  32.633286  72.468674  0
59.008362  33.175121  73.603157  0
57.297157  33.705032  74.706139  0
55.558895  34.223225  75.775841  0
53.796219  34.730999  76.809662  0
52.011021  35.229778  77.805626  0
50.205166  35.719894  78.762497  0
48.381824  36.202766  79.677841  0
46.543446  36.674690  80.552307  0
44.692360  37.128166  81.388527  0
42.829163  37.555771  82.190193  0
40.950947  37.947906  82.963707  0
39.056786  38.303185  83.710411  0
37.141304  38.617657  84.434586  0
35.200481  38.892208  85.137077  0
33.233086  39.130070  85.816086  0
31.233681  39.335526  86.470657  0
29.198837  39.521809  87.094513  0
27.138695  39.709602  87.673485  0
91.501427  9.789097  39.136467  0
90.629532  10.826124  40.854431  0
89.716103  11.859248  42.548557  0
88.763741  12.894690  44.212273  0
87.776199  13.933402  45.838829  0
86.756927  14.970347  47.424934  0
85.706047  15.994416  48.976044  0
84.623871  16.998680  50.496017  0
83.507332  17.980093  51.992714  0
82.356056  18.947533  53.464664  0
81.166550  19.909843  54.914368  0
79.953896  20.892004  56.310738  0
78.720512  21.916204  57.643394  0
77.463516  22.750456  59.006966  0
76.164818  23.589022  60.352943  0
74.833832  24.421553  61.672394  0
73.471466  25.227869  62.972214  0
72.080940  26.016104  64.245628  0
70.660316  26.777771  65.498634  0
69.207237  27.508522  66.735588  0
67.719177  28.206327  67.959663  0
66.194313  28.871784  69.171761  0
64.633232  29.508495  70.368988  0
63.034378  30.116283  71.551910  0
61.400871  30.701817  72.714035  0
59.733170  31.266636  73.853554  0
58.034527  31.814659  74.965462  0
56.306118  32.347218  76.047874  0
54.551537  32.866505  77.096848  0
52.772152  33.372986  78.111099  0
50.970203  33.867638  79.088692  0
49.146961  34.350796  80.028732  0
47.305523  34.820168  80.930481  0
45.447056  35.272331  81.795036  0
43.572144  35.701756  82.624771  0
41.679798  36.102592  83.423004  0
39.768658  36.469990  84.192604  0
37.833008  36.802063  84.936867  0
35.872158  37.097939  85.655884  0
33.878365  37.357761  86.351913  0
31.847895  37.586967  87.022598  0
29.769764  37.793037  87.666687  0
27.642229  37.984314  88.278526  0
91.068703  8.641872  40.395664  0
90.186638  9.693353  42.099998  0
89.262535  10.739962  43.781887  0
88.297142  11.781488  45.440186  0
87.291977  12.815194  47.073154  0
86.247459  13.832581  48.683006  0
85.164635  14.826177  50.270958  0
84.043938  15.792545  51.838322  0
82.883278  16.733707  53.388626  0
81.679848  17.663698  54.921715  0
80.427544  18.626694  56.430988  0
79.183777  19.619158  57.836132  0
77.956291  20.574032  59.156788  0
76.680634  21.421364  60.507881  0
75.370354  22.267654  61.834137  0
74.030853  23.097174  63.134415  0
72.660507  23.902988  64.413506  0
71.257118  24.683466  65.674576  0
69.819298  25.434792  66.920387  0
68.346596  26.158014  68.150574  0
66.836395  26.849440  69.368607  0
65.289757  27.512539  70.571289  0
63.705818  28.147200  71.758644  0
62.086487  28.757473  72.926514  0
60.431980  29.344324  74.073517  0
58.744995  29.910955  75.195480  0
57.027298  30.459991  76.289421  0
55.281456  30.992266  77.352699  0
53.508385  31.508879  78.383949  0
51.710690  32.010860  79.380791  0
49.889408  32.497860  80.342613  0
48.046810  32.969154  81.268326  0
46.183830  33.422691  82.158241  0
44.301380  33.855240  83.013321  0
42.398853  34.262222  83.835777  0
40.474632  34.640312  84.627724  0
38.525669  34.986980  85.391357  0
36.548851  35.300259  86.128242  0
34.539104  35.581429  86.839005  0
32.488682  35.832455  87.524399  0
30.391165  36.060211  88.181854  0
28.225998  36.274349  88.811401  0
90.611443  7.506487  41.631962  0
89.719063  8.570770  43.324726  0
88.782692  9.625641  44.999786  0
87.800789  10.668464  46.660538  0
86.772446  11.692151  48.309799  0
85.697571  12.688004  49.949371  0
84.576744  13.647734  51.580166  0
83.412209  14.568146  53.199379  0
82.206299  15.450849  54.803242  0
80.962234  16.329916  56.377747  0
79.699043  17.342445  57.855881  0
78.443565  18.324919  59.252041  0
77.185875  19.235348  60.599865  0
75.893295  20.110262  61.933716  0
74.571350  20.962862  63.242954  0
73.218651  21.789974  64.530823  0
71.832405  22.590267  65.801102  0
70.410858  23.363094  67.055771  0
68.952599  24.107277  68.296257  0
67.457184  24.822367  69.522514  0
65.924599  25.509115  70.733543  0
64.354507  26.167631  71.928802  0
62.748016  26.800104  73.105675  0
61.106468  27.408749  74.261444  0
59.431179  27.994772  75.393814  0
57.723953  28.560591  76.499924  0
55.986500  29.106909  77.577698  0
54.220528  29.635525  78.624870  0
52.427746  30.146318  79.640007  0
50.609600  30.640295  80.621590  0
48.767319  31.116846  81.568924  0
46.902504  31.574541  82.481529  0
45.015347  32.011444  83.359978  0
43.105553  32.424309  84.205559  0
41.172588  32.811405  85.018990  0
39.214180  33.170044  85.802078  0
37.227299  33.498798  86.556099  0
35.207119  33.797665  87.282166  0
33.149731  34.067802  87.980003  0
31.048262  34.314705  88.648216  0
28.892815  34.547623  89.284187  0
90.129578  6.379750  42.848072  0
89.227089  7.454883  44.530350  0
88.276726  8.515608  46.202869  0
87.275253  9.556398  47.871761  0
86.218773  10.567538  49.544430  0
85.105797  11.537573  51.223904  0
83.938835  12.459520  52.905869  0
82.724190  13.321312  54.582520  0
81.496117  14.097281  56.210770  0
80.259560  15.008558  57.733410  0
78.970840  16.081665  59.202938  0
77.692917  17.036194  60.610043  0
76.406242  17.949110  61.967056  0
75.097588  18.826658  63.292240  0
73.759094  19.674910  64.594849  0
72.388054  20.495848  65.877846  0
70.981621  21.289557  67.144356  0
69.537758  22.053776  68.396858  0
68.056732  22.790583  69.633827  0
66.537376  23.498207  70.856277  0
64.980919  24.179045  72.061462  0
63.387173  24.832821  73.248878  0
61.757820  25.461710  74.415550  0
60.094048  26.066858  75.559410  0
58.396709  26.649263  76.678818  0
56.668121  27.210733  77.770821  0
54.909492  27.752056  78.833824  0
53.122391  28.273832  79.866150  0
51.308048  28.776779  80.866440  0
49.467640  29.260427  81.833862  0
47.602627  29.724308  82.767479  0
45.712959  30.166889  83.667694  0
43.799011  30.586580  84.534653  0
41.860420  30.981905  85.368767  0
39.895409  31.350731  86.171272  0
37.902050  31.692287  86.942696  0
35.876663  32.006084  87.683952  0
33.816853  32.292809  88.394539  0
31.717905  32.555740  89.073555  0
29.577122  32.801193  89.717751  0
89.624626  5.262574  44.042404  0
88.711266  6.345380  45.717033  0
87.745491  7.409182  47.390221  0
86.720078  8.445252  49.074493  0
85.629341  9.440977  50.778782  0
84.469040  10.384721  52.508461  0
83.241699  11.271953  54.256439  0
81.945572  12.074878  56.027859  0
80.675575  12.913259  57.660206  0
79.456009  13.908942  59.104012  0
78.190948  14.868500  60.540096  0
76.911659  15.795233  61.928253  0
75.612030  16.693331  63.278381  0
74.285339  17.562313  64.600723  0
72.926819  18.402573  65.901611  0
71.533638  19.215015  67.184235  0
70.103493  19.998922  68.451027  0
68.635727  20.754919  69.702003  0
67.129532  21.482843  70.937401  0
65.585655  22.183462  72.155495  0
64.004623  22.857510  73.354904  0
62.386749  23.505260  74.534531  0
60.733955  24.128571  75.691467  0
59.046852  24.727837  76.824501  0
57.327366  25.304867  77.930977  0
55.576283  25.859711  79.009819  0
53.795315  26.393663  80.058983  0
51.985527  26.906740  81.077324  0
50.148117  27.398983  82.063766  0
48.284111  27.870386  83.017380  0
46.393730  28.320011  83.938065  0
44.477749  28.747145  84.825310  0
42.535759  29.150307  85.679451  0
40.566746  29.528492  86.500916  0
38.569305  29.881044  87.289932  0
36.541183  30.207434  88.046875  0
34.480885  30.508360  88.771103  0
32.385227  30.785465  89.462013  0
30.253271  31.043142  90.116936  0
89.096138  4.152464  45.217659  0
88.172234  5.241296  46.884808  0
87.189659  6.306610  48.561184  0
86.136436  7.334716  50.266445  0
85.002914  8.313561  52.013355  0
83.783051  9.234500  53.806358  0
82.481781  10.118322  55.627106  0
81.176796  10.879501  57.375641  0
79.922882  11.783665  58.936214  0
78.677490  12.730148  60.396992  0
77.407967  13.659615  61.817646  0
76.115746  14.568317  63.199352  0
74.798737  15.453836  64.547089  0
73.450562  16.311178  65.870789  0
72.068474  17.140486  67.173935  0
70.650360  17.942663  68.458656  0
69.194748  18.716652  69.726418  0
67.701286  19.463600  70.976784  0
66.169411  20.182522  72.209946  0
64.600220  20.875231  73.423676  0
62.993992  21.541265  74.617233  0
61.352093  22.182415  75.788261  0
59.675087  22.798244  76.935837  0
57.964645  23.390812  78.057472  0
56.221535  23.959803  79.152176  0
54.447269  24.506386  80.218033  0
52.642693  25.030399  81.254082  0
50.809181  25.532806  82.258759  0
48.947243  26.012743  83.231636  0
47.057957  26.470676  84.171562  0
45.141308  26.905235  85.078621  0
43.197556  27.316263  85.952271  0
41.226135  27.703110  86.792526  0
39.226261  28.065344  87.599304  0
37.196663  28.402508  88.372543  0
35.136189  28.715425  89.111572  0
33.043129  29.005426  89.815567  0
30.917171  29.275152  90.482559  0
88.543404  3.048996  46.376396  0
87.609550  4.141848  48.035534  0
86.607384  5.203769  49.720024  0
85.520477  6.218268  51.454651  0
84.341690  7.182188  53.243725  0
83.057037  8.078848  55.102272  0
81.740829  8.920067  56.911057  0
80.464211  9.718821  58.575203  0
79.181053  10.617590  60.146725  0
77.904205  11.543147  61.625397  0
76.613251  12.458019  63.049252  0
75.300789  13.352944  64.432060  0
73.960106  14.224185  65.784302  0
72.587189  15.068561  67.112122  0
71.179581  15.887099  68.418327  0
69.734894  16.677374  69.705879  0
68.252907  17.441481  70.974197  0
66.733032  18.178331  72.223625  0
65.175194  18.888342  73.453560  0
63.580173  19.571981  74.662567  0
61.948936  20.230072  75.849007  0
60.281979  20.862398  77.011971  0
58.580692  21.470352  78.149384  0
56.845867  22.053707  79.260216  0
55.078674  22.613159  80.342918  0
53.279980  23.149364  81.396255  0
51.450951  23.662041  82.419098  0
49.592346  24.151897  83.410339  0
47.704872  24.618092  84.369400  0
45.788975  25.060936  85.295479  0
43.844814  25.479996  86.188179  0
41.872662  25.875139  87.046867  0
39.871296  26.245626  87.871758  0
37.840839  26.592182  88.661865  0
35.780109  26.915300  89.416718  0
33.688652  27.216328  90.135155  0
31.566605  27.497253  90.815475  0
87.963730  1.950241  47.524498  0
87.018028  3.042355  49.179325  0
85.996368  4.094317  50.871014  0
84.874931  5.083969  52.634579  0
83.644173  6.073910  54.467964  0
82.349327  6.885559  56.313198  0
81.029472  7.685187  58.096153  0
79.713310  8.548180  59.772224  0
78.410812  9.451288  61.338551  0
77.109062  10.363103  62.823559  0
75.794670  11.263659  64.251846  0
74.457481  12.144682  65.639847  0
73.091072  13.001609  66.997406  0
71.691658  13.833530  68.329636  0
70.257210  14.639439  69.639153  0
68.785370  15.418683  70.928398  0
67.276405  16.171772  72.196671  0
65.729866  16.898579  73.444000  0
64.145706  17.598944  74.669975  0
62.524998  18.273315  75.872993  0
60.868252  18.921940  77.052032  0
59.176277  19.545038  78.205879  0
57.449978  20.142897  79.333244  0
55.690266  20.716089  80.432823  0
53.897995  21.264261  81.503609  0
52.074303  21.788719  82.544037  0
50.219685  22.288197  83.553696  0
48.335144  22.763865  84.531181  0
46.420925  23.215063  85.476067  0
44.477604  23.642040  86.387474  0
42.505051  24.044621  87.264977  0
40.503292  24.422998  88.107887  0
38.472115  24.777229  88.915604  0
36.411301  25.109173  89.686928  0
34.320606  25.419113  90.421043  0
32.200478  25.709602  91.116112  0
87.349579  0.854773  48.675667  0
86.393684  1.941011  50.322605  0
85.365318  2.956401  52.000217  0
84.222778  3.908617  53.770329  0
82.922211  4.833023  55.682571  0
81.589447  5.660323  57.542358  0
80.246445  6.504542  59.314407  0
78.921303  7.388102  60.965927  0
77.603317  8.288157  62.522251  0
76.280960  9.187531  64.006271  0
74.943008  10.073284  65.437546  0
73.579964  10.940136  66.830406  0
72.187050  11.783390  68.192245  0
70.760742  12.602089  69.527718  0
69.298805  13.396380  70.839340  0
67.800072  14.164337  72.128525  0
66.264122  14.906979  73.395157  0
64.690834  15.623334  74.639183  0
63.080734  16.313911  75.859596  0
61.433960  16.978252  77.055878  0
59.751595  17.616554  78.226624  0
58.034019  18.229393  79.370911  0
56.282223  18.815813  80.487747  0
54.496967  19.377516  81.575684  0
52.679050  19.912888  82.634094  0
50.829304  20.423288  83.661644  0
48.948330  20.908482  84.657516  0
47.036880  21.368330  85.620827  0
45.095024  21.803267  86.550888  0
43.123417  22.213110  87.446831  0
41.121807  22.598389  88.308029  0
39.090611  22.959814  89.133446  0
37.029369  23.298323  89.922264  0
34.938652  23.615021  90.673149  0
32.818897  23.912712  91.384369  0
86.688004  -0.234962  49.851112  0
85.722176  0.857874  51.487606  0
84.669006  1.816712  53.177608  0
83.433578  2.758343  55.056595  0
82.097649  3.625434  56.980972  0
80.755844  4.476974  58.808582  0
79.417381  5.345034  60.533546  0
78.087708  6.233195  62.156719  0
76.756325  7.126260  63.699944  0
75.414635  8.013518  65.179886  0
74.053535  8.885372  66.611740  0
72.665314  9.737895  68.006805  0
71.246490  10.568787  69.370300  0
69.793175  11.374816  70.707321  0
68.304298  12.157681  72.018852  0
66.778877  12.915087  73.306084  0
65.215988  13.646774  74.569702  0
63.616325  14.353018  75.808678  0
61.979885  15.032838  77.022774  0
60.307140  15.686846  78.211082  0
58.598667  16.313841  79.372879  0
56.855274  16.915186  80.506859  0
55.077328  17.489155  81.612602  0
53.265972  18.037226  82.688538  0
51.421600  18.558462  83.734116  0
49.545063  19.053581  84.748146  0
47.636909  19.522421  85.729805  0
45.697540  19.964933  86.678352  0
43.727463  20.381823  87.592751  0
41.726639  20.773602  88.472290  0
39.695492  21.140511  89.315994  0
37.634270  21.484291  90.122627  0
35.543053  21.805639  90.891174  0
33.422691  22.108379  91.619553  0
85.952118  -1.293211  51.093643  0
84.971786  -0.193582  52.723415  0
83.787590  0.701698  54.581554  0
82.520149  1.592463  56.461395  0
81.208748  2.453289  58.301968  0
79.880402  3.316996  60.067612  0
78.547867  4.193337  61.746643  0
77.213928  5.079098  63.342018  0
75.868484  5.962927  64.872322  0
74.508896  6.838103  66.345039  0
73.124771  7.697453  67.775490  0
71.712570  8.537414  69.169502  0
70.267776  9.355996  70.533005  0
68.788567  10.151476  71.868492  0
67.273148  10.923094  73.177940  0
65.721115  11.669977  74.461708  0
64.132156  12.391596  75.719978  0
62.506042  13.087257  76.952698  0
60.843300  13.756206  78.159195  0
59.144325  14.398907  79.338646  0
57.409435  15.013826  80.490623  0
55.639503  15.601780  81.613907  0
53.834938  16.162066  82.707840  0
51.996643  16.694881  83.771294  0
50.125114  17.200281  84.803436  0
48.220993  17.677883  85.803429  0
46.284836  18.128736  86.770180  0
44.316967  18.552408  87.702995  0
42.317738  18.950077  88.600807  0
40.287296  19.321796  89.462845  0
38.225868  19.669052  90.287933  0
36.134098  19.993420  91.074638  0
34.012474  20.298321  91.821182  0
85.142365  -2.356478  52.394886  0
84.060539  -1.354574  54.147877  0
82.850166  -0.456017  55.996807  0
81.587517  0.424372  57.821243  0
80.288467  1.292549  59.599411  0
78.969528  2.163618  61.311764  0
77.640488  3.042570  62.949963  0
76.299355  3.922860  64.521469  0
74.942276  4.798568  66.035072  0
73.563614  5.662355  67.500610  0
72.158524  6.510379  68.925774  0
70.722099  7.339332  70.317276  0
69.252502  8.146914  71.677887  0
67.747620  8.932367  73.010086  0
66.206253  9.693666  74.315300  0
64.628014  10.430368  75.593826  0
63.012695  11.141559  76.845726  0
61.360371  11.826396  78.070740  0
59.671093  12.483999  79.268600  0
57.945503  13.114156  80.438408  0
56.183796  13.715877  81.579750  0
54.386787  14.289525  82.691513  0
52.555019  14.834242  83.773003  0
50.689022  15.350201  84.823311  0
48.789780  15.837574  85.841301  0
46.857170  16.296329  86.826462  0
44.892254  16.727110  87.777496  0
42.894913  17.129683  88.693855  0
40.865757  17.505226  89.574310  0
38.804642  17.855177  90.417877  0
36.712486  18.181139  91.223022  0
34.589470  18.485317  91.988380  0
84.252701  -3.475057  53.753216  0
83.105019  -2.527295  55.562294  0
81.889908  -1.621345  57.370853  0
80.631401  -0.738474  59.144165  0
79.339310  0.135588  60.870819  0
78.027260  1.011511  62.535786  0
76.696640  1.889024  64.140907  0
75.348465  2.764390  65.688400  0
73.977692  3.631708  67.187134  0
72.580780  4.486264  68.643311  0
71.154366  5.324363  70.062164  0
69.694832  6.143857  71.448463  0
68.200912  6.941793  72.804176  0
66.670776  7.717893  74.131241  0
65.104004  8.469746  75.430313  0
63.499878  9.196795  76.701920  0
61.858273  9.897278  77.946121  0
60.179539  10.571175  79.162323  0
58.463417  11.216380  80.350609  0
56.710659  11.833095  81.509995  0
54.921635  12.420331  82.639885  0
53.096832  12.977487  83.739548  0
51.237076  13.504847  84.807907  0
49.342709  14.001824  85.844322  0
47.414623  14.469248  86.847534  0
45.453175  14.906539  87.816879  0
43.458569  15.314959  88.751366  0
41.431076  15.693653  89.650291  0
39.371059  16.045956  90.512138  0
37.278427  16.371342  91.336182  0
35.153904  16.672846  92.120682  0
83.311996  -4.637197  55.114494  0
82.131676  -3.689065  56.927837  0
80.909637  -2.782547  58.701687  0
79.652512  -1.897092  60.430771  0
78.366005  -1.019100  62.110634  0
77.055359  -0.141517  63.737370  0
75.720734  0.733694  65.313339  0
74.363045  1.604251  66.839836  0
72.977097  2.464407  68.324738  0
71.561989  3.311398  69.770447  0
70.114235  4.141351  71.181763  0
68.632164  4.952533  72.561005  0
67.114243  5.742410  73.910103  0
65.559402  6.509752  75.230232  0
63.967281  7.252825  76.521782  0
62.337322  7.969925  77.785210  0
60.669399  8.660013  79.020432  0
58.963688  9.321570  80.227127  0
57.220425  9.953955  81.404808  0
55.439861  10.555489  82.553040  0
53.622852  11.126621  83.670715  0
51.769482  11.665669  84.757492  0
49.881016  12.173738  85.811920  0
47.957588  12.649313  86.833542  0
46.000027  13.093937  87.821106  0
44.008507  13.507056  88.773933  0
41.983494  13.890012  89.690880  0
39.924881  14.243339  90.571144  0
37.832825  14.567597  91.413689  0
35.707088  14.864452  92.217422  0
82.325836  -5.777698  56.471897  0
81.132751  -4.840291  58.258450  0
79.907692  -3.938748  59.993732  0
78.652206  -3.053254  61.680698  0
77.367783  -2.172802  63.320660  0
76.054832  -1.295818  64.915207  0
74.714104  -0.422253  66.465225  0
73.344078  0.443667  67.973885  0
71.942970  1.298722  69.444382  0
70.509026  2.139402  70.879478  0
69.040169  2.962980  72.281921  0
67.535522  3.767241  73.652985  0
65.993896  4.549877  74.994034  0
64.414528  5.309400  76.305817  0
62.796974  6.043604  77.588753  0
61.141075  6.751161  78.842834  0
59.446484  7.430135  80.068153  0
57.713390  8.079019  81.264343  0
55.942165  8.696791  82.430817  0
54.133003  9.281777  83.567139  0
52.286903  9.834208  84.672127  0
50.404400  10.352770  85.745064  0
48.486210  10.838195  86.784920  0
46.532974  11.289844  87.790787  0
44.545132  11.709205  88.761620  0
42.523060  12.096114  89.696564  0
40.466724  12.450993  90.594795  0
38.375656  12.773293  91.455742  0
36.250137  13.065994  92.277885  0
81.301132  -6.905650  57.813812  0
80.108055  -5.987134  59.555470  0
78.885178  -5.092506  61.247009  0
77.631401  -4.207780  62.894039  0
76.346321  -3.326515  64.499405  0
75.027946  -2.449431  66.066689  0
73.678185  -1.577369  67.594658  0
72.294548  -0.714344  69.086807  0
70.876701  0.136714  70.544136  0
69.423332  0.972691  71.968414  0
67.933479  1.791194  73.360977  0
66.406303  2.589796  74.722794  0
64.841087  3.366027  76.054604  0
63.237244  4.118580  77.356895  0
61.594170  4.844114  78.630104  0
59.911781  5.541711  79.874069  0
58.189976  6.208879  81.088699  0
56.428558  6.843456  82.273834  0
54.628445  7.445024  83.428436  0
52.789814  8.010866  84.552116  0
50.913876  8.542670  85.643448  0
49.001236  9.037557  86.701790  0
47.052689  9.498066  87.725883  0
45.068729  9.923405  88.714912  0
43.049942  10.313911  89.667862  0
40.996387  10.670406  90.583878  0
38.907398  10.992113  91.462494  0
36.782639  11.279147  92.302864  0
80.249542  -8.038315  59.121876  0
79.064629  -7.136470  60.810001  0
77.845848  -6.246721  62.458004  0
76.591766  -5.361495  64.069923  0
75.302498  -4.478900  65.646584  0
73.976265  -3.600901  67.190369  0
72.614342  -2.729417  68.700134  0
71.215561  -1.868055  70.177299  0
69.779945  -1.019484  71.622063  0
68.306847  -0.186771  73.035202  0
66.795837  0.628082  74.417206  0
65.246056  1.422002  75.768921  0
63.657265  2.193023  77.090485  0
62.028515  2.938502  78.382584  0
60.359730  3.655908  79.645073  0
58.650040  4.342686  80.878387  0
56.899979  4.996677  82.081818  0
55.109276  5.615348  83.255241  0
53.278969  6.198009  84.397491  0
51.409824  6.741765  85.507767  0
49.502754  7.249130  86.584793  0
47.559120  7.718225  87.627396  0
45.579510  8.150439  88.634529  0
43.564423  8.545804  89.605301  0
41.513973  8.904271  90.538963  0
39.428104  9.226194  91.434685  0
37.306110  9.510916  92.291908  0
79.184349  -9.184393  60.377865  0
78.007034  -8.290843  62.017460  0
76.791145  -7.401144  63.626598  0
75.534264  -6.513391  65.208504  0
74.236954  -5.628091  66.762260  0
72.900269  -4.748035  68.286217  0
71.523735  -3.876047  69.780594  0
70.108711  -3.014718  71.243805  0
68.654373  -2.167333  72.676544  0
67.161247  -1.336279  74.078217  0
65.628662  -0.524143  75.449348  0
64.056458  0.266774  76.789978  0
62.443535  1.032526  78.100822  0
60.789825  1.772258  79.381714  0
59.094025  2.479993  80.633415  0
57.356335  3.155795  81.855316  0
55.576469  3.794201  83.047340  0
53.755104  4.394771  84.208527  0
51.893280  4.955132  85.337761  0
49.992325  5.474516  86.433777  0
48.053486  5.954054  87.495209  0
46.078033  6.393602  88.520828  0
44.066559  6.793380  89.509705  0
42.019779  7.155434  90.460701  0
39.937218  7.477800  91.373421  0
37.818943  7.761069  92.246910  0
78.115967  -10.344171  61.570221  0
76.941574  -9.449173  63.172047  0
75.722969  -8.554373  64.752258  0
74.458786  -7.661320  66.311340  0
73.150818  -6.771958  67.846130  0
71.800255  -5.888459  69.354507  0
70.407906  -5.014422  70.834908  0
68.974823  -4.152194  72.285767  0
67.501396  -3.304359  73.706467  0
65.987724  -2.473956  75.096596  0
64.433655  -1.662786  76.456116  0
62.838535  -0.874530  77.785316  0
61.201401  -0.112694  79.084618  0
59.521572  0.620224  80.354202  0
57.797878  1.318657  81.594521  0
56.030499  1.981293  82.804932  0
54.218941  2.601812  83.985329  0
52.365261  3.180373  85.133804  0
50.470078  3.714177  86.249504  0
48.536240  4.204810  87.330139  0
46.564674  4.652343  88.374695  0
44.557003  5.058245  89.381699  0
42.513687  5.423501  90.350273  0
40.435074  5.748847  91.279549  0
38.320915  6.032222  92.168968  0
77.046555  -11.509679  62.700516  0
75.868340  -10.605988  64.276817  0
74.640572  -9.703244  65.837929  0
73.364723  -8.802987  67.380447  0
72.042725  -7.908001  68.900719  0
70.676178  -7.020264  70.395981  0
69.266609  -6.142862  71.863762  0
67.814850  -5.278387  73.302689  0
66.322014  -4.428535  74.711296  0
64.787636  -3.597265  76.089569  0
63.212086  -2.785872  77.436890  0
61.593712  -1.999256  78.754166  0
59.931839  -1.240493  80.041466  0
58.224850  -0.514389  81.299454  0
56.471359  0.173117  82.528511  0
54.671974  0.819602  83.727554  0
52.826481  1.418108  84.896126  0
50.938385  1.970501  86.031372  0
49.008736  2.473053  87.132248  0
47.040863  2.930357  88.196198  0
45.036072  3.341961  89.222107  0
42.996071  3.711206  90.208450  0
40.921108  4.038875  91.154541  0
38.811287  4.324941  92.059647  0
75.973694  -12.672869  63.776134  0
74.784698  -11.756531  65.337845  0
73.543076  -10.844028  66.886642  0
72.252098  -9.935269  68.417282  0
70.913239  -9.033583  69.926437  0
69.529129  -8.140805  71.410286  0
68.100807  -7.259082  72.866905  0
66.630165  -6.390491  74.293892  0
65.117302  -5.537948  75.690605  0
63.562691  -4.703324  77.056229  0
61.965103  -3.891234  78.391228  0
60.323696  -3.103960  79.695778  0
58.635307  -2.349706  80.971481  0
56.899635  -1.630129  82.217857  0
55.113430  -0.957184  83.436165  0
53.278904  -0.331171  84.624153  0
51.397228  0.240219  85.780342  0
49.472183  0.759508  86.901817  0
47.507313  1.226009  87.986092  0
45.505016  1.644741  89.031395  0
43.467659  2.019043  90.036026  0
41.395576  2.350026  90.999367  0
39.289398  2.638655  91.920509  0
74.893288  -13.825728  64.806206  0
73.687210  -12.896405  66.361725  0
72.428574  -11.972914  67.902512  0
71.118996  -11.056058  69.425148  0
69.761948  -10.146974  70.924675  0
68.358589  -9.248398  72.398689  0
66.911407  -8.360699  73.844177  0
65.421150  -7.487211  75.259651  0
63.888828  -6.629512  76.643768  0
62.313770  -5.790809  77.996536  0
60.694653  -4.974947  79.318405  0
59.028954  -4.187377  80.610474  0
57.312943  -3.436087  81.874413  0
55.544918  -2.727301  83.110306  0
53.722775  -2.072020  84.318260  0
51.849491  -1.474113  85.495377  0
49.928795  -0.936037  86.638550  0
47.965847  -0.456371  87.744339  0
45.964512  -0.031931  88.810265  0
43.928623  0.346117  89.834045  0
41.858788  0.681028  90.815079  0
39.755733  0.973079  91.752571  0
73.799217  -14.964019  65.800873  0
72.572884  -14.023183  67.353752  0
71.294250  -13.089005  68.889824  0
69.965317  -12.163200  70.405334  0
68.588036  -11.246625  71.897110  0
67.165375  -10.340099  73.361397  0
65.698532  -9.446415  74.796181  0
64.189278  -8.565530  76.199532  0
62.637676  -7.700802  77.570740  0
61.042564  -6.855947  78.910088  0
59.401352  -6.035368  80.218781  0
57.709717  -5.246727  81.498833  0
55.963654  -4.499678  82.751579  0
54.158356  -3.807081  83.978447  0
52.295830  -3.176249  85.176636  0
50.380058  -2.615338  86.342400  0
48.418125  -2.120047  87.471077  0
46.416676  -1.686507  88.558723  0
44.380810  -1.305331  89.602676  0
42.311920  -0.968816  90.602219  0
40.210785  -0.673377  91.556755  0
72.687408  -16.086573  66.766479  0
71.439529  -15.134070  68.318031  0
70.139191  -14.190410  69.850739  0
68.788940  -13.255742  71.360817  0
67.391487  -12.330687  72.844635  0
65.948906  -11.415806  74.299530  0
64.462837  -10.513282  75.723274  0
62.934780  -9.624124  77.114143  0
61.364143  -8.750598  78.472092  0
59.749432  -7.896560  79.797554  0
58.084984  -7.071085  81.093369  0
56.366116  -6.280036  82.361534  0
54.584717  -5.542856  83.604927  0
52.736782  -4.871179  84.823959  0
50.828300  -4.277215  86.012726  0
48.866554  -3.764323  87.165871  0
46.863480  -3.320999  88.276749  0
44.825302  -2.936692  89.342422  0
42.756111  -2.598209  90.361298  0
40.655392  -2.301679  91.333679  0
71.555939  -17.192150  67.706543  0
70.284836  -16.229214  69.257874  0
68.962181  -15.276662  70.787292  0
67.590210  -14.332661  72.292038  0
66.171776  -13.398407  73.768410  0
64.709038  -12.474649  75.213852  0
63.204281  -11.560933  76.626122  0
61.657585  -10.661457  78.004333  0
60.069092  -9.775890  79.348198  0
