#!ascii version in FreeSurfer format (SUMA)
32492 64980
63.439613  42.957191  -64.265808  0
62.661110  44.743431  -63.809174  0
61.877472  46.495148  -63.319664  0
61.087440  48.214607  -62.798698  0
60.283234  49.906654  -62.251575  0
59.457542  51.574509  -61.683636  0
58.595871  53.221828  -61.106144  0
57.683456  54.849617  -60.532116  0
56.711315  56.451099  -59.975826  0
55.693619  58.014713  -59.434944  0
54.467171  59.550415  -59.051460  0
53.162693  61.030079  -58.728676  0
51.898514  62.457214  -58.357864  0
50.648052  63.844860  -57.953499  0
49.404602  65.199295  -57.517277  0
48.169216  66.522438  -57.048149  0
46.935028  67.816467  -56.551125  0
45.702343  69.081406  -56.027264  0
44.469070  70.317368  -55.479454  0
43.233498  71.524658  -54.909821  0
41.995384  72.703560  -54.319256  0
40.752308  73.855545  -53.708546  0
39.502018  74.982796  -53.077038  0
38.240250  76.088860  -52.422981  0
36.961128  77.178864  -51.742619  0
35.653961  78.263168  -51.026184  0
34.303616  79.349838  -50.267929  0
32.904110  80.429329  -49.481735  0
31.492805  81.478867  -48.676456  0
30.146370  82.543137  -47.726593  0
28.787010  83.589920  -46.733635  0
27.430143  84.610260  -45.702202  0
26.071278  85.602585  -44.637268  0
24.703588  86.561058  -43.553589  0
23.323689  87.482872  -42.458839  0
21.930452  88.367218  -41.355663  0
20.522352  89.213409  -40.246754  0
19.099403  90.021706  -39.131897  0
17.660526  90.791969  -38.012154  0
16.205700  91.524452  -36.886986  0
14.733966  92.218437  -35.758492  0
13.245122  92.873314  -34.628220  0
11.738702  93.488121  -33.498867  0
10.214435  94.061516  -32.374317  0
8.671160  94.592827  -31.257126  0
7.107605  95.082260  -30.147064  0
5.521065  95.531227  -29.039684  0
3.910089  95.944283  -27.917845  0
2.272850  96.325760  -26.761570  0
0.658567  96.690933  -25.503534  0
-0.992855  97.035416  -24.148352  0
-2.739516  97.322914  -22.819874  0
-4.387279  97.585381  -21.397312  0
62.786846  41.460903  -65.869606  0
62.003319  43.287090  -65.435593  0
61.213390  45.077797  -64.968552  0
60.420238  46.832581  -64.467857  0
59.621548  48.553505  -63.936131  0
58.812706  50.244068  -63.376637  0
57.978333  51.912086  -62.798470  0
57.102085  53.563534  -62.211739  0
56.166943  55.202721  -61.627380  0
55.146496  56.832684  -61.064804  0
54.094391  58.322292  -60.599571  0
52.741695  59.822197  -60.329258  0
51.401554  61.288834  -60.012989  0
50.107670  62.708260  -59.639717  0
48.831207  64.088837  -59.229504  0
47.565403  65.435898  -58.785004  0
46.305763  66.751663  -58.309448  0
45.048149  68.037308  -57.806473  0
43.791115  69.292778  -57.278698  0
42.533714  70.517990  -56.728268  0
41.275490  71.712929  -56.156826  0
40.014153  72.878441  -55.566193  0
38.748730  74.015533  -54.956680  0
37.476692  75.126427  -54.327869  0
36.195393  76.214233  -53.677582  0
34.899677  77.284370  -53.001289  0
33.582081  78.344055  -52.291996  0
32.231434  79.399994  -51.543922  0
30.831089  80.455521  -50.757801  0
29.409609  81.505569  -49.919094  0
28.054800  82.582787  -48.918430  0
26.693762  83.653694  -47.848751  0
25.335363  84.694656  -46.743275  0
23.972940  85.698372  -45.618935  0
22.600697  86.660973  -44.486904  0
21.215769  87.581909  -43.350906  0
19.816898  88.460571  -42.213955  0
18.402519  89.297562  -41.076672  0
16.972334  90.093842  -39.937946  0
15.525052  90.849724  -38.798206  0
14.060431  91.565514  -37.657146  0
12.577669  92.240654  -36.516617  0
11.076333  92.874435  -35.378696  0
9.555694  93.466293  -34.245304  0
8.015162  94.016144  -33.116802  0
6.452487  94.523834  -31.993898  0
4.865836  94.991203  -30.870602  0
3.254643  95.421478  -29.734638  0
1.618846  95.819412  -28.566071  0
-0.022695  96.191406  -27.335190  0
-1.644726  96.538017  -26.032766  0
-3.400282  96.816566  -24.799023  0
-5.125918  97.076256  -23.450527  0
61.327888  41.784184  -67.029625  0
60.525558  43.620171  -66.587814  0
59.717434  45.419521  -66.112747  0
58.905613  47.181427  -65.605202  0
58.093102  48.904320  -65.065796  0
57.273262  50.591259  -64.500366  0
56.433022  52.252018  -63.914322  0
55.541084  53.908844  -63.316864  0
54.580383  55.566196  -62.716656  0
53.454025  57.129467  -62.280739  0
52.194710  58.621536  -61.961494  0
50.873714  60.089439  -61.653263  0
49.554382  61.531239  -61.304729  0
48.251747  62.937267  -60.915257  0
46.960606  64.308945  -60.490181  0
45.675484  65.648422  -60.033619  0
44.395035  66.956100  -59.547977  0
43.115635  68.232468  -59.037029  0
41.835411  69.477615  -58.503490  0
40.555439  70.690544  -57.949150  0
39.273407  71.871773  -57.376366  0
37.987968  73.022346  -56.786007  0
36.700390  74.142593  -56.177910  0
35.408802  75.234604  -55.551521  0
34.110268  76.302185  -54.904152  0
32.802299  77.349197  -54.232006  0
31.478024  78.383865  -53.526657  0
30.155579  79.405807  -52.776505  0
28.828943  80.395111  -52.014606  0
27.373108  81.486320  -51.094936  0
25.969681  82.624634  -49.987457  0
24.601189  83.723671  -48.837776  0
23.239464  84.778893  -47.670380  0
21.873615  85.786995  -46.498787  0
20.497833  86.747612  -45.328701  0
19.108904  87.661400  -44.162529  0
17.704912  88.529732  -43.000256  0
16.284998  89.354149  -41.840603  0
14.847939  90.136055  -40.682064  0
13.392348  90.875648  -39.525448  0
11.917498  91.573242  -38.370743  0
10.422551  92.228531  -37.219193  0
8.907131  92.841400  -36.071289  0
7.369790  93.411453  -34.928295  0
5.809001  93.938919  -33.789539  0
4.224707  94.425484  -32.649357  0
2.614547  94.873161  -31.499954  0
0.979898  95.285110  -30.327997  0
-0.674491  95.663910  -29.119766  0
-2.338264  96.009789  -27.868473  0
-4.034910  96.306038  -26.624552  0
-5.781644  96.567497  -25.323740  0
59.827415  42.110329  -68.171844  0
58.996380  43.962070  -67.725647  0
58.158279  45.775455  -67.247467  0
57.321365  47.546165  -66.735481  0
56.482052  49.275604  -66.194359  0
55.637257  50.958282  -65.633438  0
54.809494  52.578415  -65.049431  0
53.888165  54.217125  -64.471466  0
52.795654  55.823208  -64.003044  0
51.552559  57.367611  -63.649757  0
50.262505  58.864815  -63.313610  0
48.958187  60.323448  -62.961708  0
47.649590  61.749935  -62.581654  0
46.343388  63.144440  -62.169682  0
45.040695  64.507126  -61.726559  0
43.741367  65.837509  -61.254513  0
42.441261  67.136292  -60.757362  0
41.140385  68.402580  -60.237495  0
39.837963  69.635841  -59.697460  0
38.532169  70.836388  -59.139477  0
37.224445  72.003700  -58.564560  0
35.914684  73.138443  -57.973312  0
34.604362  74.241920  -57.364410  0
33.292343  75.315628  -56.737793  0
31.976059  76.364532  -56.089115  0
30.652699  77.394142  -55.412621  0
29.318623  78.409790  -54.702133  0
27.967939  79.415733  -53.953094  0
26.596079  80.431366  -53.136097  0
25.225010  81.556198  -52.079605  0
23.856663  82.710907  -50.889725  0
22.495453  83.817238  -49.685261  0
21.136660  84.869072  -48.481777  0
19.771721  85.869064  -47.281960  0
18.395102  86.819450  -46.086903  0
17.005007  87.720398  -44.899471  0
15.598464  88.574890  -43.717026  0
14.174202  89.384346  -42.538582  0
12.730190  90.149513  -41.364330  0
11.265514  90.871201  -40.193455  0
9.780012  91.549911  -39.025181  0
8.271429  92.185036  -37.861614  0
6.738901  92.776718  -36.702400  0
5.182189  93.325424  -35.545887  0
3.599731  93.831673  -34.389797  0
1.992125  94.297325  -33.227177  0
0.360767  94.724411  -32.049271  0
-1.293609  95.114532  -30.847242  0
-2.968015  95.468430  -29.613682  0
-4.668911  95.784317  -28.347244  0
-6.397893  96.068939  -27.015295  0
58.276749  42.442699  -69.299629  0
57.404327  44.315205  -68.854240  0
56.525360  46.145664  -68.377342  0
55.651432  47.934464  -67.861664  0
54.771667  49.675728  -67.323013  0
53.895878  51.348633  -66.772385  0
53.000702  52.943783  -66.241081  0
51.979958  54.527641  -65.763367  0
50.825333  56.089706  -65.350815  0
49.581589  57.605492  -64.986710  0
48.306099  59.083591  -64.619270  0
47.011478  60.528965  -64.235245  0
45.706047  61.944271  -63.826828  0
44.395466  63.329231  -63.391251  0
43.083275  64.682396  -62.928688  0
41.767906  66.003639  -62.441669  0
40.447895  67.292580  -61.932831  0
39.123421  68.548149  -61.404480  0
37.794285  69.769753  -60.858639  0
36.461094  70.957275  -60.296368  0
35.125111  72.111076  -59.717834  0
33.789852  73.230766  -59.122746  0
32.454594  74.319427  -58.509167  0
31.119606  75.380142  -57.874043  0
29.784853  76.417473  -57.212162  0
28.445292  77.440140  -56.514519  0
27.096182  78.453606  -55.774796  0
25.725582  79.442932  -55.018322  0
24.406607  80.470268  -54.118885  0
23.064810  81.693863  -52.859497  0
21.717968  82.836693  -51.637314  0
20.375706  83.921883  -50.417751  0
19.029505  84.955711  -49.197613  0
17.672054  85.939270  -47.980614  0
16.300102  86.872719  -46.770039  0
14.910434  87.758141  -45.565216  0
13.502173  88.595840  -44.367432  0
12.072982  89.387856  -43.174709  0
10.622355  90.135178  -41.985901  0
9.148276  90.837944  -40.801678  0
7.649259  91.496574  -39.621532  0
6.124107  92.110947  -38.445652  0
4.572088  92.681229  -37.273125  0
2.993627  93.208351  -36.100449  0
1.389295  93.693123  -34.923740  0
-0.240247  94.137001  -33.736752  0
-1.893004  94.541618  -32.531494  0
-3.567349  94.908493  -31.299395  0
-5.263343  95.239143  -30.029995  0
-6.977461  95.537819  -28.702623  0
56.668343  42.779125  -70.417648  0
55.742691  44.671406  -69.980118  0
54.814266  46.519505  -69.507782  0
53.901897  48.355389  -68.966240  0
52.992554  50.056084  -68.455658  0
52.086212  51.658882  -67.958717  0
51.071007  53.246223  -67.502541  0
49.988571  54.799278  -67.068497  0
48.823555  56.320148  -66.665596  0
47.596069  57.811462  -66.275551  0
46.331535  59.274132  -65.878418  0
45.040756  60.708904  -65.465714  0
43.735386  62.114906  -65.030418  0
42.419117  63.490700  -64.572052  0
41.093662  64.835220  -64.091393  0
39.759533  66.147156  -63.590359  0
38.416473  67.425934  -63.070732  0
37.065006  68.670639  -62.534229  0
35.705776  69.880440  -61.982433  0
34.341114  71.055496  -61.415024  0
32.974552  72.195992  -60.831047  0
31.608900  73.304138  -60.227741  0
30.247711  74.382584  -59.601234  0
28.891731  75.437515  -58.944450  0
27.539904  76.475311  -58.250153  0
26.187822  77.504837  -57.508236  0
24.829996  78.540489  -56.699760  0
23.479567  79.606148  -55.781460  0
22.182400  80.729424  -54.687298  0
20.886650  81.858688  -53.506111  0
19.578836  82.956200  -52.296627  0
18.262119  84.013702  -51.070480  0
16.932375  85.025597  -49.839176  0
15.585401  85.989586  -48.609543  0
14.218966  86.905052  -47.384949  0
12.830797  87.772255  -46.167114  0
11.419928  88.592049  -44.955914  0
9.986507  89.365959  -43.749226  0
8.527578  90.093979  -42.548267  0
7.041445  90.776825  -41.351974  0
5.526554  91.414627  -40.159962  0
3.982235  92.007507  -38.971283  0
2.408170  92.555580  -37.784481  0
0.805262  93.059593  -36.595951  0
-0.823944  93.520943  -35.399933  0
-2.476002  93.941429  -34.188843  0
-4.148123  94.322968  -32.954067  0
-5.838065  94.668114  -31.683838  0
-7.539961  94.980553  -30.361879  0
54.997616  43.111332  -71.530945  0
54.009747  45.007645  -71.114418  0
53.047764  46.854053  -70.644402  0
52.116699  48.653282  -70.119247  0
51.160614  50.290985  -69.666412  0
50.164433  51.892525  -69.214844  0
49.118702  53.460526  -68.770088  0
48.010403  54.995995  -68.340630  0
46.837185  56.502121  -67.924866  0
45.613167  57.982189  -67.509293  0
44.349640  59.436409  -67.085190  0
43.058769  60.863720  -66.644958  0
41.747639  62.262135  -66.185806  0
40.420036  63.629807  -65.707451  0
39.077549  64.965736  -65.210426  0
37.720406  66.268471  -64.696678  0
36.349274  67.536804  -64.167839  0
34.964489  68.770485  -63.624722  0
33.568523  69.969063  -63.067299  0
32.167034  71.132256  -62.493877  0
30.765013  72.262047  -61.900806  0
29.368782  73.362144  -61.281883  0
27.986172  74.437012  -60.629250  0
26.617182  75.494614  -59.934036  0
25.259457  76.544350  -59.185486  0
23.911783  77.598373  -58.367104  0
22.576204  78.671150  -57.455765  0
21.273178  79.769203  -56.429821  0
20.004936  80.878693  -55.303169  0
18.738785  81.975479  -54.119129  0
17.461891  83.046120  -52.900146  0
16.170019  84.080276  -51.662724  0
14.856565  85.072128  -50.418407  0
13.519401  86.017731  -49.174965  0
12.156680  86.915245  -47.936977  0
10.769555  87.764030  -46.706436  0
9.356526  88.564972  -45.482971  0
7.916334  89.319016  -44.265633  0
6.447379  90.026772  -43.053581  0
4.946811  90.688728  -41.845940  0
3.412438  91.304611  -40.642624  0
1.842986  91.873978  -39.443314  0
0.240484  92.397255  -38.245117  0
-1.389712  92.876007  -37.042084  0
-3.043028  93.312195  -35.827011  0
-4.714829  93.708382  -34.590584  0
-6.400421  94.067513  -33.321716  0
-8.093797  94.393005  -32.007023  0
53.267513  43.435471  -72.635612  0
52.248131  45.310177  -72.229630  0
51.310539  47.071327  -71.774078  0
50.306530  48.792191  -71.334251  0
49.298309  50.444668  -70.887314  0
48.262970  52.049618  -70.438072  0
47.185619  53.614033  -69.993233  0
46.053974  55.144913  -69.556236  0
44.868355  56.647461  -69.122314  0
43.637573  58.123787  -68.683235  0
42.368435  59.573662  -68.234116  0
41.070366  60.995537  -67.769981  0
39.747799  62.387486  -67.289780  0
38.403580  63.747620  -66.793755  0
37.038513  65.074936  -66.282738  0
35.653332  66.367661  -65.758453  0
34.247498  67.625740  -65.221687  0
32.822182  68.848045  -64.673416  0
31.383232  70.035095  -64.110672  0
29.937653  71.187836  -63.529755  0
28.496752  72.309021  -62.923286  0
27.076590  73.403839  -62.279499  0
25.681873  74.480286  -61.588375  0
24.316362  75.547142  -60.838669  0
22.975969  76.613419  -60.020744  0
21.658131  77.688423  -59.122200  0
20.366188  78.776222  -58.133690  0
19.108072  79.873291  -57.053822  0
17.870918  80.967926  -55.900139  0
16.634714  82.047310  -54.694836  0
15.384168  83.101280  -53.455650  0
14.111090  84.119873  -52.198898  0
12.810376  85.096100  -50.936718  0
11.479968  86.025116  -49.677856  0
10.119474  86.904510  -48.427288  0
8.729635  87.733948  -47.186298  0
7.311442  88.513924  -45.954620  0
5.863862  89.247124  -44.727673  0
4.382460  89.933762  -43.505306  0
2.861484  90.573128  -42.288544  0
1.300149  91.164597  -41.077084  0
-0.300589  91.707687  -39.869907  0
-1.934955  92.202934  -38.663597  0
-3.594748  92.653404  -37.448956  0
-5.271218  93.062775  -36.215111  0
-6.958086  93.434425  -34.951290  0
-8.648684  93.771873  -33.645744  0
51.558762  43.655693  -73.728371  0
50.520496  45.455303  -73.358681  0
49.509995  47.214279  -72.935394  0
48.483822  48.913525  -72.503700  0
47.444424  50.562763  -72.058548  0
46.379410  52.165215  -71.608238  0
45.271980  53.730141  -71.158417  0
44.117607  55.262230  -70.708725  0
42.915150  56.765793  -70.256203  0
41.671505  58.241756  -69.795296  0
40.390701  59.689224  -69.323776  0
39.079292  61.107086  -68.838455  0
37.739326  62.492798  -68.340271  0
36.373009  63.845612  -67.828766  0
34.978970  65.163155  -67.307022  0
33.559029  66.445854  -66.773804  0
32.110947  67.692459  -66.231552  0
30.637383  68.902924  -65.679054  0
29.145664  70.077988  -65.112267  0
27.649826  71.219574  -64.523315  0
26.176109  72.332260  -63.897221  0
24.739590  73.424355  -63.220383  0
23.353987  74.504738  -62.479080  0
22.016003  75.581398  -61.666412  0
20.715523  76.661102  -60.777821  0
19.441685  77.745857  -59.813065  0
18.195799  78.834541  -58.770973  0
16.978840  79.924774  -57.651966  0
15.776044  81.011208  -56.465042  0
14.569877  82.082924  -55.227818  0
13.345430  83.128784  -53.958355  0
12.089158  84.137733  -52.675362  0
10.796617  85.101303  -51.392609  0
9.466849  86.014023  -50.119530  0
8.102717  86.873146  -48.861061  0
6.709226  87.680542  -47.614178  0
5.286056  88.438812  -46.374943  0
3.828551  89.149971  -45.140045  0
2.330488  89.814369  -43.908398  0
0.782975  90.429413  -42.683811  0
-0.817195  90.992134  -41.470016  0
-2.460076  91.503075  -40.263309  0
-4.131470  91.965950  -39.053741  0
-5.818791  92.385826  -37.828560  0
-7.512884  92.767540  -36.575146  0
-9.206453  93.114731  -35.282986  0
49.832245  43.741642  -74.855972  0
48.763916  45.556198  -74.476265  0
47.718636  47.307301  -74.060455  0
46.670845  49.001991  -73.624977  0
45.605339  50.648487  -73.177078  0
44.510628  52.252991  -72.721588  0
43.375755  53.821827  -72.261719  0
42.196442  55.357773  -71.798172  0
40.975437  56.864475  -71.326324  0
39.713509  58.340881  -70.846153  0
38.416805  59.787113  -70.353752  0
37.085659  61.200405  -69.851013  0
35.724159  62.580276  -69.336098  0
34.330006  63.924049  -68.812546  0
32.902546  65.231140  -68.281189  0
31.441975  66.501938  -67.741371  0
29.945850  67.735306  -67.195045  0
28.414047  68.931831  -66.641167  0
26.857126  70.092186  -66.074043  0
25.311937  71.220863  -65.474373  0
23.808451  72.325584  -64.824120  0
22.379131  73.416344  -64.103165  0
21.026859  74.499603  -63.306255  0
19.744223  75.585114  -62.426407  0
18.493141  76.673569  -61.474945  0
17.255943  77.757172  -60.465324  0
16.054586  78.839569  -59.384949  0
14.885935  79.929626  -58.220821  0
13.724293  81.018784  -56.987720  0
12.550196  82.091660  -55.708649  0
11.347643  83.136765  -54.401379  0
10.103786  84.140892  -53.086948  0
8.811506  85.092613  -51.784218  0
7.474661  85.985435  -50.503807  0
6.103828  86.820709  -49.243347  0
4.706278  87.602501  -47.996365  0
3.280380  88.337852  -46.751076  0
1.811898  89.027458  -45.506367  0
0.284515  89.667160  -44.268730  0
-1.307593  90.251984  -43.044968  0
-2.959605  90.778664  -41.838673  0
-4.651166  91.250732  -40.640755  0
-6.357695  91.677238  -39.431744  0
-8.066053  92.065559  -38.195179  0
-9.770134  92.419083  -36.922298  0
48.075287  43.826607  -75.947319  0
47.004944  45.627537  -75.555695  0
45.941147  47.371136  -75.135788  0
44.870071  49.064404  -74.695114  0
43.776451  50.713478  -74.241272  0
42.652748  52.323097  -73.776947  0
41.490452  53.897457  -73.304886  0
40.287571  55.438759  -72.824829  0
39.044281  56.948483  -72.335434  0
37.762650  58.425938  -71.835869  0
36.444572  59.869980  -71.325867  0
35.091236  61.278770  -70.806190  0
33.703476  62.650776  -70.277710  0
32.279175  63.984383  -69.742760  0
30.815145  65.278511  -69.203636  0
29.309542  66.534042  -68.659821  0
27.757725  67.750580  -68.112900  0
26.156059  68.928093  -67.563141  0
24.528700  70.067253  -66.999428  0
22.930489  71.182968  -66.386589  0
21.409885  72.282150  -65.703186  0
20.013487  73.372231  -64.930550  0
18.715782  74.453583  -64.081055  0
17.534374  75.562576  -63.109768  0
16.304722  76.649002  -62.121552  0
15.093160  77.705956  -61.106308  0
13.957129  78.793877  -59.972691  0
12.838907  79.899979  -58.746540  0
11.717551  81.001381  -57.458462  0
10.577915  82.085129  -56.126099  0
9.395766  83.137436  -54.771214  0
8.149826  84.136604  -53.428577  0
6.842663  85.070312  -52.117367  0
5.490489  85.935097  -50.843029  0
4.113297  86.739441  -49.591835  0
2.717608  87.495491  -48.344124  0
1.290301  88.209335  -47.089794  0
-0.197019  88.877090  -45.834743  0
-1.770750  89.487495  -44.596565  0
-3.433733  90.030510  -43.390293  0
-5.155581  90.508026  -42.210403  0
-6.890810  90.935860  -41.026642  0
-8.619145  91.327164  -39.812805  0
-10.339785  91.683594  -38.564346  0
46.324852  43.885498  -76.993973  0
45.248569  45.677105  -76.590927  0
44.168530  47.417671  -76.162361  0
43.073521  49.112801  -75.713974  0
41.953522  50.766544  -75.250641  0
40.802124  52.382339  -74.774849  0
39.613407  53.962738  -74.288628  0
38.386501  55.509491  -73.791420  0
37.119965  57.021927  -73.284424  0
35.816166  58.500015  -72.766411  0
34.474937  59.941162  -72.239433  0
33.096268  61.343796  -71.704788  0
31.680717  62.706612  -71.163277  0
30.224243  64.027283  -70.618706  0
28.723522  65.304649  -70.073265  0
27.173937  66.539406  -69.527588  0
25.567427  67.730713  -68.984474  0
23.874763  68.870491  -68.460587  0
22.195496  69.978706  -67.899490  0
20.518850  71.111404  -67.246895  0
19.021509  72.215233  -66.506714  0
17.653885  73.266098  -65.729889  0
16.471119  74.391121  -64.766220  0
15.401554  75.528358  -63.704472  0
14.108639  76.518883  -62.815659  0
12.980230  77.583191  -61.744339  0
11.911266  78.723412  -60.504105  0
10.836899  79.853561  -59.211235  0
9.757083  80.970917  -57.866306  0
8.653756  82.075882  -56.468246  0
7.476851  83.138565  -55.064278  0
6.206988  84.125710  -53.706032  0
4.866814  85.025902  -52.410976  0
3.495878  85.850502  -51.161224  0
2.123600  86.621948  -49.921207  0
0.742012  87.354988  -48.667816  0
-0.685204  88.052109  -47.395744  0
-2.215065  88.694168  -46.134998  0
-3.869591  89.261230  -44.916134  0
-5.634564  89.742043  -43.756336  0
-7.421167  90.159431  -42.616932  0
-9.174928  90.547958  -41.435356  0
-10.911575  90.907280  -40.209503  0
44.579460  43.924366  -77.995659  0
43.493034  45.712654  -77.580345  0
42.395638  47.453953  -77.140991  0
41.278111  49.152748  -76.681969  0
40.133244  50.812412  -76.206444  0
38.955967  52.434856  -75.716698  0
37.742046  54.021442  -75.214508  0
36.490406  55.572830  -74.700142  0
35.200748  57.088100  -74.174507  0
33.873318  58.565723  -73.638664  0
32.508163  60.003716  -73.094269  0
31.103071  61.398716  -72.545135  0
29.659197  62.749855  -71.991577  0
28.172005  64.054077  -71.438179  0
26.637245  65.308846  -70.888725  0
25.054333  66.515244  -70.342041  0
23.402859  67.664169  -69.813087  0
21.686123  68.772682  -69.282257  0
20.078295  69.915390  -68.619980  0
18.467970  71.029846  -67.924187  0
17.002131  72.116158  -67.157928  0
15.643339  73.208405  -66.300941  0
14.515965  74.333534  -65.297874  0
13.241428  75.304001  -64.451302  0
12.012105  76.312653  -63.498730  0
10.973452  77.507706  -62.226517  0
9.903164  78.666214  -60.938938  0
8.869217  79.778091  -59.638851  0
7.856719  80.938416  -58.200039  0
6.777040  82.084045  -56.712265  0
5.570211  83.147217  -55.276699  0
4.237534  84.096458  -53.942841  0
2.847498  84.938416  -52.700645  0
1.471351  85.714508  -51.486485  0
0.126526  86.457840  -50.249638  0
-1.219055  87.182236  -48.967049  0
-2.658761  87.865448  -47.671734  0
-4.264108  88.464157  -46.431778  0
-6.073482  88.952919  -45.282341  0
-7.967237  89.336655  -44.220852  0
-9.750939  89.717155  -43.078423  0
-11.483736  90.088425  -41.859264  0
42.834454  43.951279  -78.952492  0
41.735992  45.739193  -78.524086  0
40.621033  47.483616  -78.072006  0
39.482418  49.187729  -77.599648  0
38.313763  50.853664  -77.110054  0
37.111969  52.482880  -76.604500  0
35.873474  54.075611  -76.084961  0
34.597927  55.631859  -75.551834  0
33.284889  57.149799  -75.006775  0
31.933876  58.626675  -74.452271  0
30.544674  60.060383  -73.890289  0
29.113583  61.446041  -73.326561  0
27.642881  62.783539  -72.760567  0
26.125652  64.066399  -72.200737  0
24.565208  65.295288  -71.645485  0
22.958782  66.471191  -71.094833  0
21.307627  67.603630  -70.538879  0
19.674997  68.735115  -69.916931  0
18.084141  69.851891  -69.236389  0
16.565573  70.951149  -68.494637  0
15.131386  72.038605  -67.686638  0
13.823784  73.128029  -66.792183  0
12.577389  74.176666  -65.875877  0
11.309326  75.213005  -64.923820  0
10.151846  76.336189  -63.794415  0
9.054707  77.476189  -62.573563  0
7.938127  78.511017  -61.424805  0
6.968817  79.676857  -60.025276  0
6.020835  80.946243  -58.407665  0
4.914499  82.113358  -56.861622  0
3.623910  83.144829  -55.441902  0
2.178388  84.003609  -54.209305  0
0.751503  84.771690  -53.039581  0
-0.601616  85.511826  -51.839806  0
-1.874526  86.249832  -50.571259  0
-3.149338  86.990150  -49.221905  0
-4.669188  87.620842  -47.966503  0
-6.329190  88.163414  -46.767025  0
-8.499521  88.478882  -45.817524  0
-10.385811  88.815781  -44.764839  0
-12.053788  89.232346  -43.500523  0
41.087498  43.970314  -79.865059  0
39.976139  45.760155  -79.422394  0
38.844017  47.509186  -78.955803  0
37.685081  49.219532  -78.468285  0
36.493797  50.892509  -77.962524  0
35.268993  52.529179  -77.438904  0
34.006886  54.129238  -76.899651  0
32.707844  55.690235  -76.346542  0
31.371653  57.210617  -75.781029  0
29.997969  58.687019  -75.206085  0
28.584528  60.115032  -74.626450  0
27.129143  61.490250  -74.047005  0
25.630314  62.808598  -73.472214  0
24.090824  64.069763  -72.901970  0
22.511736  65.274040  -72.336159  0
20.901300  66.433914  -71.761215  0
19.280899  67.567307  -71.154099  0
17.695150  68.685944  -70.492004  0
16.156021  69.788231  -69.775246  0
14.685858  70.880356  -68.994926  0
13.294582  71.966232  -68.147743  0
11.980326  73.041519  -67.241409  0
10.703282  74.107368  -66.283760  0
9.470573  75.190231  -65.243683  0
8.305240  76.282578  -64.124809  0
7.122961  77.298965  -63.040733  0
6.011353  78.385139  -61.803185  0
5.200367  79.779373  -60.068363  0
4.193192  81.013397  -58.474319  0
3.047701  82.170517  -56.909733  0
1.518763  83.044670  -55.689095  0
-0.010765  83.779266  -54.598843  0
-1.449579  84.505745  -53.447906  0
-2.772080  85.256630  -52.188335  0
-3.829537  86.057152  -50.788792  0
-5.147386  86.753059  -49.471306  0
-6.795496  87.282158  -48.328522  0
-8.798995  87.649948  -47.329311  0
-10.965035  87.905815  -46.393276  0
-12.653269  88.310684  -45.178730  0
39.337643  43.983624  -80.734077  0
38.213352  45.776871  -80.275887  0
37.065170  47.531353  -79.793129  0
35.887169  49.248589  -79.288635  0
34.674679  50.929588  -78.764481  0
33.426796  52.575111  -78.220894  0
32.140812  54.182655  -77.660843  0
30.819118  55.750759  -77.084602  0
29.459679  57.273769  -76.497337  0
28.064186  58.750172  -75.900063  0
26.627377  60.171692  -75.301727  0
25.147495  61.533779  -74.707413  0
23.626238  62.832039  -74.121078  0
22.068886  64.068230  -73.540649  0
20.485378  65.252808  -72.954926  0
18.891462  66.399918  -72.347519  0
17.312805  67.523956  -71.699242  0
15.768476  68.632431  -70.999603  0
14.274061  69.730003  -70.242287  0
12.839927  70.819847  -69.423958  0
11.469136  71.903870  -68.544075  0
10.149090  72.981178  -67.607269  0
8.870202  74.058617  -66.608116  0
7.635082  75.140305  -65.541130  0
6.433325  76.217415  -64.416756  0
5.250019  77.338577  -63.175797  0
4.235658  78.591278  -61.688477  0
3.311368  79.866188  -60.086830  0
2.330513  81.083801  -58.480652  0
0.969051  82.020592  -57.198627  0
-0.743124  82.723228  -56.181099  0
-2.365409  83.400551  -55.124886  0
-3.706614  84.199234  -53.821457  0
-4.990048  84.994225  -52.450752  0
-6.137896  85.725311  -51.122387  0
-7.659575  86.285751  -49.960979  0
-9.393649  86.724281  -48.894360  0
-11.318011  87.049896  -47.898003  0
-13.148025  87.385414  -46.807251  0
37.584816  43.992130  -81.560249  0
36.448654  45.789192  -81.085434  0
35.285664  47.549885  -80.584923  0
34.089092  49.275097  -80.061844  0
32.856136  50.966293  -79.516731  0
31.584841  52.622635  -78.950981  0
30.273863  54.239281  -78.368324  0
28.927559  55.814320  -77.768616  0
27.547466  57.343178  -77.155014  0
26.129528  58.817299  -76.536087  0
24.670357  60.231445  -75.918022  0
23.167112  61.576618  -75.310066  0
21.626707  62.849705  -74.714127  0
20.062706  64.060486  -74.119789  0
18.490057  65.224129  -73.511436  0
16.926006  66.357552  -72.871025  0
15.384820  67.472443  -72.185707  0
13.879620  68.575752  -71.447342  0
12.419689  69.671066  -70.651924  0
11.010419  70.761169  -69.797050  0
9.648008  71.846107  -68.884346  0
8.325698  72.928329  -67.912743  0
7.038873  74.011871  -66.878220  0
5.786026  75.104485  -65.771103  0
4.562797  76.223701  -64.568802  0
3.409283  77.403435  -63.222496  0
2.350289  78.624550  -61.746704  0
1.287535  79.799744  -60.252335  0
0.145268  80.829407  -58.877720  0
-1.409842  81.606339  -57.779034  0
-3.136042  82.278259  -56.749046  0
-4.655054  83.015022  -55.559319  0
-5.869993  83.872131  -54.138790  0
-7.169897  84.609306  -52.819103  0
-8.556573  85.236046  -51.590706  0
-10.130728  85.738411  -50.460823  0
-11.858147  86.140190  -49.388771  0
-13.632159  86.486969  -48.313229  0
35.830170  43.994850  -82.344711  0
34.684093  45.796432  -81.851692  0
33.507317  47.564404  -81.331955  0
32.292141  49.300537  -80.787834  0
31.037521  51.004307  -80.219902  0
29.739037  52.672863  -79.631393  0
28.401226  54.302864  -79.022591  0
27.029858  55.887192  -78.396484  0
25.628370  57.420517  -77.756485  0
24.193192  58.895199  -77.110603  0
22.710697  60.295574  -76.476578  0
21.184324  61.613197  -75.861969  0
19.632759  62.853508  -75.259491  0
18.075439  64.034264  -74.651794  0
16.525372  65.177452  -74.018990  0
14.992006  66.298477  -73.346779  0
13.484657  67.407394  -72.625107  0
12.010834  68.508492  -71.849335  0
10.576310  69.604576  -71.016502  0
9.180245  70.695801  -70.127220  0
7.820757  71.783989  -69.180161  0
6.492869  72.871582  -68.173126  0
5.194746  73.964470  -67.098961  0
3.926290  75.073013  -65.944115  0
2.698258  76.209732  -64.689995  0
1.528936  77.373001  -63.333099  0
0.382843  78.510834  -61.934669  0
-0.817215  79.552719  -60.586285  0
-2.181255  80.434677  -59.375961  0
-3.731596  81.189629  -58.260792  0
-5.306861  81.937798  -57.079201  0
-6.685780  82.742851  -55.757694  0
-8.023598  83.492973  -54.447643  0
-9.402216  84.159340  -53.186512  0
-10.884931  84.722069  -51.997013  0
-12.484537  85.189583  -50.861305  0
-14.166832  85.582581  -49.748600  0
34.076138  43.990448  -83.088242  0
32.922230  45.797573  -82.575478  0
31.731895  47.574810  -82.034897  0
30.498692  49.324306  -81.467430  0
29.217752  51.044418  -80.875153  0
27.886379  52.729805  -80.261559  0
26.515917  54.373478  -79.626816  0
25.117960  55.969913  -78.971252  0
23.700760  57.510429  -78.299583  0
22.249140  58.978390  -77.630692  0
20.739908  60.355251  -76.987663  0
19.195347  61.628532  -76.377113  0
17.646673  62.825573  -75.772964  0
16.108175  63.976921  -75.149712  0
14.584264  65.103691  -74.490326  0
13.079890  66.217934  -73.784149  0
11.600108  67.324799  -73.026077  0
10.149659  68.426682  -72.213402  0
8.729107  69.523529  -71.346207  0
7.339118  70.616989  -70.422859  0
5.977074  71.708145  -69.442184  0
4.641486  72.800575  -68.399796  0
3.330721  73.899391  -67.288834  0
2.048130  75.009468  -66.101334  0
0.800610  76.129860  -64.835197  0
-0.423032  77.234962  -63.518364  0
-1.665831  78.278458  -62.206966  0
-2.990227  79.216675  -60.957188  0
-4.431340  80.050201  -59.768963  0
-5.938959  80.831566  -58.574623  0
-7.394521  81.616341  -57.307018  0
-8.781935  82.376579  -56.008720  0
-10.170249  83.071533  -54.732861  0
-11.610540  83.684013  -53.499359  0
-13.129451  84.211449  -52.307266  0
-14.729028  84.659592  -51.144993  0
32.324741  43.976929  -83.792252  0
31.164083  45.790871  -83.258606  0
29.961649  47.580555  -82.694557  0
28.708229  49.346561  -82.102097  0
27.393970  51.085632  -81.485146  0
26.020708  52.791573  -80.845360  0
24.606823  54.454304  -80.182495  0
23.178125  56.062187  -79.497208  0
21.755350  57.606667  -78.791985  0
20.291653  59.066158  -78.098900  0
18.748495  60.386459  -77.472382  0
17.203676  61.593330  -76.878448  0
15.675087  62.749405  -76.267975  0
14.160700  63.881355  -75.621735  0
12.661704  65.000946  -74.930359  0
11.180372  66.113647  -74.188843  0
9.720606  67.221451  -73.394730  0
8.282808  68.323830  -72.548264  0
6.869351  69.422302  -71.647438  0
5.479173  70.517197  -70.691612  0
4.111589  71.610405  -69.678154  0
2.764882  72.703812  -68.604012  0
1.438663  73.798523  -67.466354  0
0.135216  74.892738  -66.265068  0
-1.150354  75.973282  -65.013359  0
-2.440118  77.011528  -63.743790  0
-3.768588  77.979202  -62.490334  0
-5.162291  78.866730  -61.264919  0
-6.611398  79.692497  -60.044937  0
-8.065520  80.487099  -58.794342  0
-9.480961  81.256119  -57.511349  0
-10.879948  81.976639  -56.226833  0
-12.297879  82.631027  -54.962494  0
-13.765550  83.210686  -53.726067  0
-15.298219  83.715401  -52.513767  0
30.577412  43.952286  -84.458382  0
29.412184  45.774559  -83.902405  0
28.198210  47.578640  -83.313461  0
26.918041  49.365990  -82.694725  0
25.558493  51.130039  -82.051712  0
24.125681  52.859318  -81.387001  0
22.651888  54.541935  -80.697395  0
21.193508  56.166000  -79.976341  0
19.797813  57.755997  -79.197807  0
18.307653  59.132732  -78.537575  0
16.747639  60.323311  -77.978294  0
15.227546  61.483044  -77.381889  0
13.722992  62.622631  -76.746895  0
12.229847  63.749905  -76.068268  0
10.749735  64.870163  -75.341248  0
9.283913  65.984161  -74.564728  0
7.834405  67.092674  -73.737350  0
6.403329  68.196785  -72.857368  0
4.990463  69.296120  -71.924553  0
3.595898  70.391441  -70.937401  0
2.218262  71.483078  -69.894562  0
0.856672  72.570488  -68.795280  0
-0.488740  73.651657  -67.640182  0
-1.821923  74.717262  -66.438019  0
-3.152928  75.751793  -65.205261  0
-4.499683  76.736298  -63.963211  0
-5.882399  77.657761  -62.726944  0
-7.301292  78.520996  -61.491013  0
-8.734767  79.340492  -60.239433  0
-10.155260  80.125084  -58.964760  0
-11.559025  80.868179  -57.677788  0
-12.963371  81.557724  -56.394051  0
-14.392960  82.184570  -55.122940  0
-15.866436  82.746368  -53.863670  0
28.834946  43.914082  -85.088768  0
27.666574  45.745796  -84.509651  0
26.440754  47.565815  -83.895050  0
25.128588  49.377953  -83.248856  0
23.706253  51.171154  -82.580429  0
22.186228  52.925468  -81.894234  0
20.629028  54.628899  -81.179596  0
19.164331  56.263756  -80.418404  0
17.842489  57.823734  -79.611938  0
16.298979  58.982201  -79.091362  0
14.773957  60.156143  -78.504585  0
13.276824  61.315147  -77.872833  0
11.789341  62.457623  -77.201401  0
10.309855  63.588970  -76.486275  0
8.839952  64.711868  -75.724693  0
7.381461  65.827599  -74.914886  0
5.936654  66.937675  -74.054749  0
4.505833  68.042191  -73.143402  0
3.088871  69.141151  -72.180054  0
1.684960  70.233749  -71.164474  0
0.293288  71.318970  -70.096497  0
-1.086914  72.394142  -68.977585  0
-2.457584  73.453621  -67.812416  0
-3.824466  74.486938  -66.611328  0
-5.196465  75.481712  -65.387367  0
-6.584801  76.427124  -64.152435  0
-7.993268  77.320694  -62.909595  0
-9.413037  78.167839  -61.653732  0
-10.828309  78.974297  -60.380524  0
-12.229899  79.740273  -59.092457  0
-13.622245  80.461189  -57.796459  0
-15.019049  81.131355  -56.498943  0
-16.439795  81.746719  -55.201511  0
27.093637  43.860348  -85.686668  0
25.924480  45.700161  -85.084763  0
24.685890  47.537727  -84.443893  0
23.339716  49.380005  -83.766777  0
21.818085  51.195812  -83.084053  0
20.204327  52.965267  -82.380005  0
18.552191  54.646706  -81.667336  0
17.184408  56.154949  -80.940208  0
15.829365  57.514256  -80.259216  0
14.326145  58.746189  -79.647011  0
12.831177  59.944927  -79.006119  0
11.345167  61.114979  -78.334190  0
9.864676  62.265617  -77.625259  0
8.390353  63.401520  -76.875542  0
6.924412  64.526817  -76.081154  0
5.468211  65.643730  -75.239609  0
4.022519  66.753777  -74.348869  0
2.587288  67.857513  -73.407524  0
1.161430  68.953697  -72.415733  0
-0.255562  70.040817  -71.373795  0
-1.664549  71.116028  -70.283279  0
-3.066510  72.175072  -69.147346  0
-4.464260  73.210838  -67.972366  0
-5.862509  74.214340  -66.767227  0
-7.266659  75.177246  -65.540657  0
-8.679354  76.094856  -64.298073  0
-10.096924  76.967422  -63.040207  0
-11.509321  77.797859  -61.765915  0
-12.907033  78.588120  -60.475750  0
-14.288226  79.337761  -59.172337  0
-15.659661  80.044624  -57.858742  0
-17.035704  80.706726  -56.535019  0
25.347549  43.787991  -86.256096  0
24.175295  45.633064  -85.633972  0
22.932961  47.482243  -84.967735  0
21.574760  49.357544  -84.251785  0
19.920113  51.176399  -83.571312  0
18.281681  52.873032  -82.886795  0
16.702669  54.429501  -82.209793  0
15.303668  55.898083  -81.493568  0
13.867458  57.237160  -80.818321  0
12.389621  58.499153  -80.152023  0
10.905124  59.715843  -79.467583  0
9.420460  60.897190  -78.757782  0
7.939055  62.052746  -78.015572  0
6.464339  63.189972  -77.234962  0
4.998082  64.314583  -76.411079  0
3.540203  65.430603  -75.540070  0
2.089808  66.539528  -74.619865  0
0.645861  67.640953  -73.649750  0
-0.792354  68.732849  -72.630348  0
-2.225554  69.812302  -71.563187  0
-3.654389  70.875206  -70.451042  0
-5.079556  71.916473  -69.298050  0
-6.503586  72.929184  -68.110481  0
-7.929307  73.906448  -66.895172  0
-9.356609  74.843689  -65.657249  0
-10.782390  75.738869  -64.400032  0
-12.199337  76.592567  -63.124912  0
-13.598805  77.406433  -61.832977  0
-14.975373  78.181946  -60.525368  0
-16.329578  78.920174  -59.202629  0
-17.669415  79.622063  -57.862919  0
23.586990  43.697262  -86.799797  0
22.400076  45.542439  -86.163345  0
21.173466  47.393654  -85.472366  0
19.821600  49.262390  -84.736778  0
18.060375  50.992851  -84.104416  0
16.432636  52.628685  -83.427750  0
14.897208  54.174622  -82.723549  0
13.430409  55.623604  -82.009979  0
11.960490  56.974590  -81.307098  0
10.474490  58.254379  -80.602188  0
8.982433  59.481579  -79.882774  0
7.490479  60.666370  -79.142174  0
6.004361  61.819180  -78.373062  0
4.527248  62.951599  -77.566750  0
3.058501  64.072456  -76.716148  0
1.595897  65.186234  -75.816933  0
0.137344  66.293549  -74.867516  0
-1.318628  67.391975  -73.868683  0
-2.772456  68.478432  -72.821823  0
-4.224497  69.548645  -71.729630  0
-5.675211  70.598030  -70.595398  0
-7.124861  71.621078  -69.423744  0
-8.574150  72.612183  -68.219902  0
-10.022076  73.566910  -66.988564  0
-11.465015  74.482239  -65.733925  0
-12.896098  75.357407  -64.458916  0
-14.306175  76.193634  -63.165367  0
-15.686689  76.993019  -61.854691  0
-17.033203  77.758591  -60.526615  0
-18.348133  78.493515  -59.178661  0
21.803341  43.582275  -87.322388  0
20.587635  45.398064  -86.690048  0
19.323318  47.288696  -85.967377  0
17.802422  49.077263  -85.290657  0
16.156822  50.771999  -84.623634  0
14.575575  52.391487  -83.920708  0
13.054533  53.925007  -83.196594  0
11.560680  55.368961  -82.465919  0
10.063391  56.729404  -81.734337  0
8.557461  58.018326  -80.997803  0
7.049380  59.244091  -80.252380  0
5.547141  60.417793  -79.491631  0
4.056845  61.557346  -78.703461  0
2.577671  62.680561  -77.874916  0
1.105133  63.796925  -76.998260  0
-0.364823  64.909294  -76.070038  0
-1.834994  66.015556  -75.090469  0
-3.306378  67.111153  -74.061874  0
-4.779432  68.191475  -72.986847  0
-6.253513  69.251450  -71.868835  0
-7.727310  70.286713  -70.711151  0
-9.201316  71.292046  -69.518188  0
-10.674099  72.263382  -68.293968  0
-12.142036  73.197342  -67.042671  0
-13.597954  74.092270  -65.768013  0
-15.029705  74.948784  -64.473160  0
-16.425402  75.769386  -63.160168  0
-17.777086  76.558006  -61.829185  0
-19.080774  77.319489  -60.478271  0
19.971449  43.473465  -87.813438  0
18.716885  45.284077  -87.172409  0
17.334234  47.146370  -86.468163  0
15.807770  48.890156  -85.789665  0
14.256032  50.559933  -85.090881  0
12.720692  52.160126  -84.365311  0
11.203718  53.686726  -83.619446  0
9.684660  55.133724  -82.864227  0
8.155289  56.501125  -82.104286  0
6.622082  57.786335  -81.344261  0
5.095600  58.989532  -80.587036  0
3.587656  60.135746  -79.817421  0
2.097861  61.257233  -79.013611  0
0.618326  62.372971  -78.161568  0
-0.859375  63.488972  -77.255501  0
-2.340456  64.603035  -76.295273  0
-3.826588  65.709229  -75.283829  0
-5.317794  66.801712  -74.224335  0
-6.812379  67.874718  -73.120544  0
-8.309583  68.923584  -71.975616  0
-9.808802  69.943985  -70.792839  0
-11.308743  70.931831  -69.575760  0
-12.806754  71.883827  -68.327896  0
-14.295609  72.797493  -67.053413  0
-15.760321  73.672684  -65.756729  0
-17.185844  74.511856  -64.440903  0
-18.558016  75.319862  -63.107204  0
-19.868097  76.102493  -61.754913  0
18.100182  43.381268  -88.263519  0
16.725513  45.195683  -87.621964  0
15.334415  46.981209  -86.934593  0
13.874516  48.690289  -86.236610  0
12.384103  50.340462  -85.512993  0
10.877750  51.932274  -84.762695  0
9.346552  53.463703  -83.989731  0
7.784667  54.920334  -83.205505  0
6.216574  56.288731  -82.419243  0
4.655598  57.537048  -81.656685  0
3.122397  58.687531  -80.907509  0
1.619739  59.803535  -80.130600  0
0.135012  60.913837  -79.306290  0
-1.346148  62.030769  -78.424309  0
-2.834106  63.152557  -77.483688  0
-4.332012  64.270622  -76.488701  0
-5.838871  65.377190  -75.443565  0
-7.352413  66.465096  -74.352760  0
-8.871502  67.529274  -73.219490  0
-10.395229  68.565819  -72.046288  0
-11.922822  69.570885  -70.835999  0
-13.453171  70.541069  -69.591454  0
-14.980637  71.473343  -68.316483  0
-16.489576  72.366264  -67.016541  0
-17.961679  73.221680  -65.695999  0
-19.373795  74.045357  -64.357903  0
-20.707214  74.845276  -63.003147  0
16.038637  43.242397  -88.729126  0
14.748120  45.044987  -88.053627  0
13.400860  46.786213  -87.358269  0
12.000242  48.472645  -86.639465  0
10.550434  50.113087  -85.891602  0
9.049675  51.706879  -85.114639  0
7.478113  53.251839  -84.310852  0
5.822155  54.750191  -83.477654  0
4.224776  56.068619  -82.694984  0
2.669399  57.206989  -81.977043  0
1.148914  58.315952  -81.227646  0
-0.343158  59.417534  -80.432823  0
-1.823974  60.532276  -79.577110  0
-3.314484  61.661350  -78.656792  0
-4.821267  62.793064  -77.677444  0
-6.341887  63.915848  -76.645592  0
-7.872914  65.020744  -75.566658  0
-9.412100  66.102089  -74.444115  0
-10.958696  67.156044  -73.280083  0
-12.512620  68.179237  -72.076530  0
-14.074725  69.168289  -70.835373  0
-15.642132  70.119835  -69.559563  0
-17.202719  71.030983  -68.254425  0
-18.737442  71.901573  -66.925880  0
-20.213839  72.737343  -65.579567  0
-21.594786  73.550034  -64.218826  0
14.062524  43.094463  -89.135361  0
12.830061  44.854362  -88.450417  0
11.535807  46.566345  -87.741104  0
10.177830  48.237728  -87.003067  0
8.752833  49.871574  -86.233490  0
7.240818  51.465843  -85.433235  0
5.608505  53.023560  -84.599335  0
3.853075  54.520237  -83.741852  0
2.260731  55.656155  -83.049873  0
0.706576  56.780464  -82.313301  0
-0.808712  57.881554  -81.541840  0
-2.289570  58.990551  -80.714760  0
-3.777832  60.127670  -79.814735  0
-5.292040  61.275112  -78.850204  0
-6.825606  62.415939  -77.830986  0
-8.373211  63.540100  -76.762917  0
-9.930905  64.640579  -75.650330  0
-11.497966  65.713432  -74.495247  0
-13.075449  66.755714  -73.298759  0
-14.665593  67.764435  -72.061798  0
-16.269756  68.736305  -70.785706  0
-17.881733  69.667267  -69.474571  0
-19.489204  70.554466  -68.133972  0
-21.056063  71.400299  -66.773048  0
-22.520992  72.218613  -65.400894  0
12.172274  42.899956  -89.506584  0
10.982483  44.628803  -88.812477  0
9.726659  46.320541  -88.089729  0
8.402288  47.979656  -87.334732  0
6.986050  49.601250  -86.550049  0
5.457097  51.159882  -85.748978  0
3.770602  52.666439  -84.923660  0
2.011922  53.968304  -84.162788  0
0.344225  55.164673  -83.407074  0
-1.237772  56.307316  -82.631439  0
-2.740769  57.406296  -81.835236  0
-4.216664  58.550060  -80.957451  0
-5.740728  59.716721  -80.005989  0
-7.288836  60.877609  -78.998665  0
-8.852848  62.022503  -77.941246  0
-10.427949  63.143719  -76.838326  0
-12.013395  64.237061  -75.692001  0
-13.610548  65.299377  -74.503319  0
-15.223248  66.328392  -73.272079  0
-16.857048  67.321541  -71.997574  0
-18.511286  68.274139  -70.682205  0
-20.185169  69.181686  -69.328583  0
-21.855141  70.041397  -67.945251  0
-23.449347  70.860153  -66.550476  0
10.352383  42.663822  -89.847801  0
9.192138  44.371487  -89.144127  0
7.963242  46.048992  -88.408585  0
6.657896  47.688980  -87.643791  0
5.244775  49.274220  -86.859337  0
3.593914  50.805080  -86.057701  0
1.827449  52.178146  -85.288330  0
0.078590  53.446472  -84.519043  0
-1.580489  54.657578  -83.726051  0
-3.143401  55.837585  -82.899239  0
-4.615227  56.945282  -82.072746  0
-6.166934  58.121403  -81.141060  0
-7.733215  59.301479  -80.146942  0
-9.313057  60.467846  -79.100616  0
-10.904166  61.611080  -78.007523  0
-12.505594  62.726109  -76.870316  0
-14.119336  63.809757  -75.689888  0
-15.749454  64.859787  -74.465866  0
-17.403128  65.874321  -73.196342  0
-19.086248  66.849541  -71.880836  0
-20.804029  67.780373  -70.519592  0
-22.551743  68.661652  -69.115822  0
-24.306581  69.491013  -67.677101  0
8.584548  42.392708  -90.161880  0
7.437486  44.088791  -89.447540  0
6.215226  45.755230  -88.700790  0
4.908939  47.374229  -87.929428  0
3.436301  48.893017  -87.164581  0
1.651518  50.321388  -86.400414  0
-0.140324  51.637489  -85.636147  0
-1.868908  52.891628  -84.846817  0
-3.503905  54.120995  -84.015724  0
-5.032868  55.316345  -83.155098  0
-6.586759  56.491234  -82.251778  0
-8.166961  57.686935  -81.274338  0
-9.758462  58.874996  -80.240311  0
-11.362110  60.041748  -79.157379  0
-12.976604  61.179924  -78.029648  0
-14.603589  62.286121  -76.858154  0
-16.246534  63.358162  -75.642532  0
-17.912683  64.394463  -74.380707  0
-19.609999  65.392044  -73.070709  0
-21.347935  66.346512  -71.710579  0
-23.130741  67.252075  -70.300262  0
-24.956509  68.107216  -68.837341  0
6.841911  42.092861  -90.450981  0
5.691625  43.787167  -89.723412  0
4.449740  45.478138  -88.949081  0
3.059146  47.070766  -88.175873  0
1.403469  48.435989  -87.475624  0
-0.358410  49.770756  -86.733749  0
-2.124745  51.047188  -85.963188  0
-3.856531  52.291321  -85.151306  0
-5.489426  53.526539  -84.289833  0
-7.034609  54.788166  -83.359291  0
-8.603323  56.023701  -82.385239  0
-10.195972  57.240494  -81.360725  0
-11.805511  58.433754  -80.287781  0
-13.429194  59.597515  -79.169395  0
-15.066001  60.728107  -78.007133  0
-16.718254  61.823376  -76.800858  0
-18.391850  62.882126  -75.548515  0
-20.093714  63.901855  -74.248199  0
-21.834021  64.879211  -72.896942  0
-23.622444  65.808250  -71.493042  0
-25.454813  66.683891  -70.037933  0
5.101305  41.765240  -90.717377  0
3.939587  43.462471  -89.974960  0
2.637586  45.104782  -89.210991  0
1.086951  46.524097  -88.511726  0
-0.605569  47.859688  -87.801392  0
-2.355896  49.150745  -87.055466  0
-4.132926  50.411968  -86.264435  0
-5.931589  51.631016  -85.434517  0
-7.496623  52.967716  -84.487999  0
-9.047044  54.291962  -83.489731  0
-10.630449  55.555378  -82.465714  0
-12.238387  56.782841  -81.399818  0
-13.866096  57.976658  -80.289719  0
-15.509500  59.134621  -79.136292  0
-17.168018  60.255138  -77.939568  0
-18.845453  61.337440  -76.697891  0
-20.548286  62.380074  -75.408844  0
-22.282930  63.379990  -74.070564  0
-24.060413  64.332474  -72.680321  0
-25.881559  65.230209  -71.240196  0
3.343513  41.403652  -90.964607  0
2.175650  43.070469  -90.223068  0
0.710393  44.526470  -89.537086  0
-0.892932  45.905159  -88.836472  0
-2.585109  47.215046  -88.113876  0
-4.354976  48.489281  -87.348862  0
-6.164194  49.763672  -86.519241  0
-7.889626  51.080479  -85.606888  0
-9.472233  52.478027  -84.595123  0
-11.054730  53.808258  -83.561134  0
-12.660082  55.083282  -82.495789  0
-14.288815  56.314243  -81.391258  0
-15.936065  57.504105  -80.245377  0
-17.599039  58.652954  -79.057602  0
-19.278543  59.760784  -77.826645  0
-20.979525  60.827374  -76.549927  0
-22.707487  61.850693  -75.225418  0
-24.468561  62.826996  -73.851601  0
-26.269650  63.750313  -72.427917  0
1.520620  40.975788  -91.206757  0
0.241635  42.507965  -90.515274  0
-1.244298  43.915115  -89.832703  0
-2.840327  45.247807  -89.132309  0
-4.543991  46.535679  -88.395599  0
-6.359507  47.813801  -87.597923  0
-8.146852  49.166935  -86.696259  0
-9.814191  50.591923  -85.697952  0
-11.441718  51.991856  -84.651840  0
-13.060455  53.328747  -83.579124  0
-14.694317  54.606785  -82.475304  0
-16.346384  55.834614  -81.334450  0
-18.013460  57.015854  -80.154274  0
-19.695179  58.152168  -78.933037  0
-21.393593  59.244556  -77.668503  0
-23.113468  60.292183  -76.358490  0
-24.860128  61.293049  -75.000916  0
-26.638191  62.243038  -73.594902  0
-0.371594  40.465866  -91.446037  0
-1.696643  41.906780  -90.779648  0
-3.164386  43.261738  -90.102211  0
